-939.131809960074 778.9404788962854 -1.616375135541773
-939.6150921242072 779.3081662072022 -1.6171241604914144
-940.0990187545588 779.6757783190604 -1.6178703831863004
-940.6649408821927 779.9056428616158 -1.6173985198461196
-941.068105420529 780.4119666586854 -1.6193649131059829
-941.5536085533736 780.7799648221414 -1.6201081121407697
-942.201990980981 780.8733040114324 -1.6184247213183198
-942.6070261296712 781.3795347060241 -1.620383822140866
-943.0932414090258 781.7493881951491 -1.6211369536342772
-943.4164284001499 782.3962308829994 -1.6243328684612948
-943.8212552299065 782.9059210947463 -1.626315964669402
-944.3089791808034 783.2763154880773 -1.627067355078509
-946.3557290510661 781.0084016062165 -1.6045292971698473
-946.8440952402767 781.3796634071897 -1.6052842289446403
-947.3335876102559 781.7500499653288 -1.606029264234735
-947.9042575810882 781.9840241471526 -1.60556810281264
-948.3959618499347 782.35272693385 -1.6062939377536054
-948.8068609935572 782.8592902930135 -1.6082343759164246
-949.2980463594788 783.230949156618 -1.6089819292841412
-948.8837424283906 785.1370104519754 -1.6232699527965906
-950.2816893023642 783.9752284421031 -1.6104789650588032
-950.774147541209 784.3478504335001 -1.6112284556563736
-951.3477870386885 784.5840252088699 -1.6107715023324545
-951.9233311594722 784.8180069566109 -1.6102930208184034
-952.41691498448 785.1918426646495 -1.6110466578792852
-952.9112691572786 785.5654200252312 -1.6117958130350871
-952.9124549532037 786.7754143960399 -1.619924499334104
-953.7368473667958 786.5920539623476 -1.6157540061723807
-953.90276259989 787.5251716521921 -1.6214346027081206
-954.562722019131 787.6224328642326 -1.619736314399404
-954.9763456028985 788.1380560179512 -1.6217279378745957
-955.3905736692457 788.6537211338438 -1.6237176890856517
-955.1425135075683 790.292562026905 -1.6356171300775486
-955.6401610904885 790.6690661956144 -1.636374220258233
-956.5512621238939 790.3460630505783 -1.630956105904147
-957.0497079190027 790.7233060953265 -1.6317153176580064
-957.5488054224986 791.1005066874458 -1.632471921450474
-958.2138581647371 791.1975376154638 -1.630753933245046
-958.7954919874024 791.4369806167005 -1.6302904562118101
-959.0476323786276 792.2358935993352 -1.634761705814185
-959.8784339891697 792.0551717307519 -1.6305861059383915
-959.633409933814 793.6988965500179 -1.6425075536224654
-960.7992526242756 792.9524113139989 -1.6333351552316913
-961.3010288224636 793.3325279526654 -1.6341018124952598
-961.3042877203876 794.5587605786515 -1.6423322550442663
-961.8066249593289 794.9401086066042 -1.6431051895360156
-962.3094008440468 795.3217892686172 -1.6438787965234383
-963.3126266090346 794.8561254202808 -1.6371734732664436
-963.816485398928 795.2380924294378 -1.6379451455633784
-963.8209214919118 796.4678898163477 -1.6461953530654796
-964.2421844793679 796.9920973238011 -1.6482174498021323
-964.9138540383592 797.092811502705 -1.6465006367475326
-965.5864293188699 797.1930516866054 -1.6447774098667765
-966.2595837127841 797.2933730122065 -1.6430526644778638
-966.7661711104437 797.6772239157951 -1.6438272748059717
-967.3565301644436 797.9200979035917 -1.643355763179727
-968.4493344411768 797.3119323431312 -1.6353733741239012
-968.9574170872988 797.6964728764725 -1.6361472908569112
-969.2986493100898 798.3650991152513 -1.6394253113912214
-969.8077801732287 798.7500620324578 -1.6401983314220843
-970.4846772552654 798.8515526089469 -1.6384681065527502
-971.077711404333 799.0963738176678 -1.6380001493167242
-971.6713573887163 799.3412449534281 -1.6375303471474467
-972.0159661195115 800.0096802718615 -1.6407950509098441
-972.5266179866614 800.3975486868775 -1.6415821793939926
-972.8714151808322 801.0679056605554 -1.6448591277959963
-973.4675000106644 801.3130460259165 -1.6443824434563794
-973.896075850245 801.8434962773439 -1.64642043824432
-974.9131996125433 801.3764280387182 -1.6396561444867643
-975.4269236341761 801.7645947736869 -1.6404343292845738
-976.1089892936672 801.8682097012834 -1.6386999628737158
-976.4557303558922 802.5419581571198 -1.641992779204827
-976.970815154097 802.9311541899555 -1.6427730327118866
-977.7370911634746 802.8951601496229 -1.639800175478399
-978.1698300883409 803.4263297535191 -1.6418281685675424
-978.6863507146161 803.8164291179417 -1.6426093766327767
-978.950523487506 804.6359714319269 -1.6471764030678173
-979.4667785423443 805.0287818435977 -1.6479767797598583
-979.9004784713634 805.5628525144967 -1.650020847300084
-980.4192781485771 805.9535979417714 -1.6507982755499029
-980.6850712918074 806.7749823551817 -1.6553719087320928
-981.2889997345966 807.0234766999947 -1.654889814193325
-981.9756537662962 807.1326389474129 -1.653176381330809
-982.49646210401 807.5244892867489 -1.6539540775380601
-983.0174683108717 807.9171362056776 -1.6547364227280354
-983.5369599748065 808.3134889301615 -1.6555490739594347
-984.0583980559506 808.707672467968 -1.6563402082975358
-984.581914046336 809.0994647232853 -1.6571078643135024
-985.4426929405408 808.9196535586537 -1.6528315498730421
-985.7972314430128 809.6006712103468 -1.6561454364769475
-986.4902373240419 809.7080188663327 -1.6543971696279982
-987.0984753493112 809.9604571886464 -1.6539262254347022
-987.6233366585319 810.3556432462032 -1.6547118981391122
-988.233068753903 810.6078171626358 -1.6542338520507656
-988.92707365431 810.7179779511456 -1.652500933123747
-989.4527586306859 811.1151909229688 -1.6532972941627122
-989.9787850379466 811.512975163517 -1.6540962781309076
-990.4218179667175 812.0529061953828 -1.6561464739669987
-990.9493344628352 812.4504723010601 -1.6569386812369657
-990.8818047277571 813.8601780768246 -1.6666546118029828
-992.0056700804967 813.2468608065619 -1.6585268974740757
-992.5343747109994 813.6458808624141 -1.6593246430092563
-992.978374494213 814.189993697817 -1.6613995008486881
-993.6777300363202 814.3013575418596 -1.6596555990839192
-994.2911178841905 814.5599510048646 -1.659207672925504
-994.8219136577156 814.9600578751065 -1.6600052708167823
-995.3536583811244 815.3597191046612 -1.6607964914027775
-995.970103528522 815.6165935900543 -1.6603261153421158
-996.3339765215978 816.3039117838327 -1.6636490835822997
-996.7806246753779 816.8517311945898 -1.6657394164617472
-997.3990550980606 817.1087408410257 -1.6652628735713506
-997.5054152823833 818.2373689757912 -1.6724698308735242
-998.124033350483 818.4964242364753 -1.6720063687216111
-998.6585857197501 818.8995591190603 -1.6728109311326875
-999.0226415196814 819.5937346558063 -1.6761793391324318
-999.3007820160512 820.4351876825264 -1.6808438577863285
-449.51592695883767 244.21789400033484 -0.772204729772568
-449.63258101749454 244.35221976996664 -0.7730025260985371
-449.77215703729223 244.41052764148307 -0.773196745106759
-449.93489459299593 244.392017324927 -0.7727810355202109
-450.07459166269166 244.45036801264072 -0.7729753654123783
-450.21451044540044 244.50820474859452 -0.7731655004349705
-450.35445684048966 244.56617331159927 -0.773356566964992
-450.724795109424 243.85797321448456 -0.7674653864980883
-450.8648871036567 243.91589331093195 -0.7676558442210535
-451.0051026404975 243.9736265460371 -0.7678447033679845
-451.12240161692034 244.10781893064922 -0.7686404065846659
-451.26269312085685 244.16574929559053 -0.7688305993801237
-451.37999860074876 244.30037257434913 -0.7696294905675813
-451.5202408291383 244.35891732024103 -0.7698243289797233
-451.63765159741837 244.49364347133863 -0.7706238038791184
-451.77810718673766 244.5519294601281 -0.7708163563482913
-451.9880487253755 244.3792649689759 -0.7691754389069843
-452.151739616001 244.36069412278448 -0.7687576497149848
-452.31542673877584 244.34235885231647 -0.7683416159536023
-452.4331373833129 244.4772149682801 -0.7691415429601989
-452.50466733376413 244.76594926436022 -0.7711628789164138
-452.6453006461377 244.82499589067703 -0.7713607746862294
-452.76313139267245 244.96013848463105 -0.7721626232185486
-452.88101665952354 245.09532826551285 -0.772964728850809
-453.02188160157516 245.15428519621125 -0.7731615626028088
-453.1627446493661 245.21347493114718 -0.7733601280049243
-453.30375726177044 245.27239365229326 -0.7735564255591498
-453.4221015583864 245.40696831176433 -0.774353179392449
-453.5405063461551 245.54157100519444 -0.7751500379180811
-453.6817340326021 245.60045726679144 -0.7753457267032218
-453.82311660466155 245.65905536248513 -0.77553901119893
-453.9645891895248 245.7175813028128 -0.7757316060677795
-454.1060609864577 245.77633739417143 -0.7759259109967047
-454.20146232792325 245.98863573095286 -0.7773389422822561
-454.34298575107294 246.04767795877856 -0.7775352832956628
-454.48463360690505 246.106534077131 -0.7777300297931333
-454.6033337672977 246.24198793131072 -0.778532702509608
-454.74512824584536 246.30081372073616 -0.7787269731089168
-454.886983714963 246.3596649648504 -0.7789213283973027
-455.02886968078633 246.41864329913355 -0.7791165750927007
-455.1708473242062 246.47754525405148 -0.7793110979542348
-455.31288611705315 246.5364725778992 -0.7795057045962039
-455.45498609884334 246.59542528706965 -0.7797003950729504
-455.59711654880186 246.65450577921442 -0.779895982149128
-455.7392768348231 246.7137163112329 -0.7800924836615764
-455.8816221885981 246.77254035408748 -0.7802857992904819
-456.0704746611229 246.67679455564158 -0.7792520126722593
-456.3057357646124 246.4267995394795 -0.7769936726313631
-456.4483565297485 246.48538888213758 -0.7771847748161349
-456.56766251827116 246.62181550045625 -0.7779936336618789
-456.7800145088646 246.44875049084405 -0.77634562074428
-456.92273600767163 246.50769278549635 -0.7765391710985341
-457.0654876004197 246.5667654498773 -0.7767336378970526
-457.1850307332018 246.7033270232496 -0.777543093171289
-457.3512068232741 246.6848838734329 -0.7771220023149681
-457.56336818843477 246.5135848825042 -0.7754874268401295
-457.70634643608025 246.57282308568472 -0.7756827350675053
-457.84938628625196 246.63208752371392 -0.7758781327293605
-457.96946841645905 246.76801303091875 -0.7766819439586357
-458.1356804114434 246.75059710272228 -0.7762684181166719
-458.2097537624069 247.04016327292416 -0.7782915809179372
-458.35306157027304 247.099466082043 -0.7784868052477236
-458.51964995276865 247.08149160156773 -0.7780684889128224
-458.66308649824026 247.14082887923058 -0.7782637490048501
-458.8294244016862 247.1241492884924 -0.7778554746557234
-458.95008351137346 247.2597881628539 -0.7786561711915851
-459.09367455336286 247.31930867807375 -0.7788525275053075
-459.23719976903755 247.37928122619635 -0.7790523524151922
-459.10113529360103 248.37043025237614 -0.7866436224767313
-459.24488863078716 248.430124321455 -0.786840989781183
-459.5521932856352 247.94546117763872 -0.782717205327458
-459.6961040041728 248.00508929298817 -0.7829138138469034
-459.74666645697465 248.37579054938442 -0.7855795526487555
-459.9839868079107 248.12484223565448 -0.7833106136919241
-460.1277302894132 248.1857286301739 -0.7835168500440091
-460.24844223182527 248.3235453552733 -0.7843336252753943
-460.2061777630888 249.00432727025625 -0.7894602343568522
-460.3971902227596 248.90851459014183 -0.7884222575832496
-460.54147358011437 248.9685492600199 -0.7886212472726584
-461.1069610864289 247.62609736872395 -0.7776874769280084
-461.2749149858723 247.6077486788118 -0.7772640472950343
-461.4657984905759 247.51326839198796 -0.7762361831377689
-461.61039683192814 247.57316760466804 -0.7764336285243871
-461.7088527707138 247.7869784601542 -0.777852665818898
-461.8536039056326 247.8468421087963 -0.7780495858881409
-462.0217111486247 247.82915187645975 -0.7776307826292168
-462.1665916685153 247.88905480535385 -0.7778277730774334
-462.2648663756319 248.1044233876643 -0.7792586853278181
-462.2693775282994 248.63233582951162 -0.7831703570803938
-462.4377524000903 248.61470218628037 -0.7827515163081102
-462.5829788583075 248.67440648837825 -0.7829464405303952
-462.5170861266181 249.43756615410163 -0.7887250522347244
-462.63884506440763 249.57592460338688 -0.7895440590195335
-462.78411931346176 249.6361926155967 -0.789743086677845
-462.92939061565846 249.6967075298529 -0.7899439524526883
-463.074857716712 249.75680746516292 -0.7901414024765359
-463.24369367154696 249.73929897778737 -0.7897227024423614
-463.3891553409232 249.79989070287775 -0.7899238129544415
-463.5346748956215 249.86052732215683 -0.7901251577902713
-463.68038967660107 249.92075146260913 -0.7903231064158831
-464.2017723970589 248.72971559962377 -0.7805889154122383
-464.3010576947444 248.94507308372664 -0.7820180171437414
-464.47030280259446 248.9276026648029 -0.7815989000848163
-464.59302530971144 249.06536089755733 -0.7824118029602118
-464.7390365320137 249.12577137436938 -0.7826106280863883
-464.86162901909387 249.2644440520566 -0.7834305424207173
-464.98424266778676 249.40328775313859 -0.7842516902993566
-465.15386151055793 249.38576249765038 -0.7838315270253133
-465.2766578575261 249.52447848767196 -0.7846514143209333
-465.3759775709873 249.7416578575509 -0.7860939834467331
-465.5222611377064 249.80260139855 -0.786296300494655
-465.6218967906314 250.0192151412421 -0.7877341299681007
-465.79178408542685 250.00199230415112 -0.787315752886002
-465.9619983200024 249.98391764048225 -0.7868904925076095
-466.132129381014 249.96635782376654 -0.786469196740768
-466.30233048103554 249.94880249785976 -0.7860478145476577
-466.4491987185462 250.00923642707636 -0.7862453482850924
-466.61947417517786 249.99191082771463 -0.7858255445023588
-466.74318557415296 250.1299923221316 -0.7866391563552497
-466.86666026804284 250.26910622377846 -0.7874608378886023
-466.9901268157276 250.4084910741137 -0.7882845449593106
-467.1136166741149 250.54804221416975 -0.7891094467549351
-467.2372237532504 250.68744684754802 -0.7899330603904673
-467.3844579319771 250.74835506353153 -0.7901334896161529
-467.60258116011926 250.57325331119367 -0.7884604863999698
-467.70257342762943 250.79208724862661 -0.7899141894732225
-467.82632146590083 250.93199515196594 -0.790741298499313
-467.92672699308537 251.1499454162961 -0.7921877342299695
-468.02705109074145 251.36841477579574 -0.7936381631296285
-468.1745516978566 251.429894004605 -0.793842376135899
-468.3221844002088 251.49117583971758 -0.7940448977457208
-468.4699486288265 251.55226232651168 -0.7942457441171769
-468.6413566394732 251.5347840436811 -0.7938228700834316
-468.81297912389863 251.51683165030767 -0.7933961093529547
-469.0082646215307 251.4202455107008 -0.7923450832279855
-469.298282412811 251.0081265372551 -0.7887894499714889
-469.4698314281337 250.99113449616362 -0.7883699448277071
-469.618169452689 251.0517556740557 -0.7885663554032476
-469.76644170693595 251.11284024940932 -0.788766318853618
-469.84373802579603 251.41076898246757 -0.7908460566028452
-469.992063584918 251.4721686090249 -0.7910482679390611
-470.14045459933953 251.53359470543342 -0.7912505638662992
-470.2888792271781 251.59515358411082 -0.7914537881310366
-470.4374322903847 251.65652930009793 -0.7916554329129326
-470.5861454763048 251.71761636563525 -0.7918546608524366
-470.7822801798318 251.620852407205 -0.7908008623924729
-470.97846817970236 251.5241510210845 -0.7897474373515365
-471.1273028814146 251.58556419850032 -0.7899488786533766
-471.32296132374205 251.4911119957009 -0.7889130577976289
-471.4718646646321 251.55278555942576 -0.7891163149144518
-471.59744746895973 251.69245896030415 -0.789938545448706
-471.7231695685545 251.83191684366173 -0.7907589377173849
-471.87220573005425 251.89388913804382 -0.7909641855783889
-471.9741611696075 252.11308911874204 -0.7924172492217849
-472.1231897282567 252.1755828908418 -0.7926263816963228
-472.2487768425765 252.31648697458274 -0.7934577418320714
-472.422140009572 252.29833345615612 -0.7930265112978532
-472.5716529017359 252.35995375182097 -0.7932283305959231
-472.7211273596403 252.42194970229528 -0.7934330045948172
-472.84703260089685 252.56278789297156 -0.7942633315190051
-472.6160567168548 253.8939621527337 -0.8045413541810831
-472.76584033650744 253.95569313924926 -0.8047435323348964
-472.91550676281224 254.0180631162974 -0.8049506549548937
-473.1363068340246 253.84346139193792 -0.8032767866665154
-473.2864538601448 253.90472155526575 -0.8034748478531242
-473.86464339387516 252.53872496238344 -0.7923445537082898
-473.99132935278215 252.67870183362652 -0.7931671508928275
-474.11783088605546 252.81954539579752 -0.7939964980299123
-474.36308441418106 252.56458753991149 -0.7916842251551657
-474.5366203749782 252.54905977189415 -0.7912721935277887
-474.6638954210375 252.6880702106686 -0.7920866082710631
-474.83761413742684 252.67242949367235 -0.7916734255609867
-474.98799050803524 252.73489097804077 -0.7918800135460629
-475.0678521880837 253.03279779382666 -0.7939552017751339
-475.19460039629894 253.1745743665991 -0.7947910540552243
-475.3214687361498 253.31620327536288 -0.7956256046055046
-475.44836234694264 253.45800109478682 -0.7964613659873407
-475.24113806763415 254.71454676643785 -0.806144707299552
-475.39197943024027 254.7769880172663 -0.8063503499225249
-475.6383352448842 254.52106851649668 -0.8040290525739238
-475.78913771213 254.58413646114178 -0.8042394144779337
-475.9402611220522 254.64638520973094 -0.8044431456000325
-476.2586347499904 254.1509533492675 -0.8002204827683386
-476.48142375180606 253.97462180422042 -0.7985303706581703
-476.63257567993367 254.03751721771806 -0.7987388540548181
-476.7839302024501 254.09998885310407 -0.7989438447522161
-476.8639049720708 254.40084543814413 -0.8010407395995003
-477.0153736006955 254.4634450914154 -0.8012464856186057
-477.23864122290445 254.28675791265098 -0.7995529147264051
-477.4140891337597 254.26985665247398 -0.7991274164082824
-477.54194500630376 254.41198997315686 -0.7999640231759031
-477.71766569171365 254.39468199091039 -0.7995350387789699
-477.9649627172033 254.13881184125705 -0.7972124983461981
-478.11713490844596 254.20057147434457 -0.797410804693925
-478.3168545387411 254.1039384395942 -0.7963518479825211
-478.44515107241597 254.24586736526214 -0.7971861837221468
-478.668690243648 254.07025663996177 -0.795500140402396
-478.82102969533366 254.13246825979235 -0.7957015164224686
-478.97323627382315 254.1953775521495 -0.7959082993948527
-479.1255420461882 254.25821034319807 -0.7961143447750487
-479.2779483134235 254.32096245644942 -0.7963196193307454
-479.4068011178631 254.46256696304948 -0.7971505952525035
-479.5592734870849 254.52560968275154 -0.7973579143254597
-479.6640204991437 254.74817182003926 -0.7988311660394061
-479.79255275883014 254.8916196847914 -0.7996763757600434
-479.94508603004726 254.9552293619015 -0.7998877999576166
-480.07416831810974 255.09735701441943 -0.8007222674572176
-480.2508812563169 255.08078425594553 -0.8002970448252427
-480.379987531 255.22334650469293 -0.8011346978848337
-480.58087221095764 255.12661161775083 -0.800072992741832
-480.75754375462293 255.11093895432822 -0.7996545234800578
-480.88689063060707 255.2534688008131 -0.8004915245439861
-480.92022946012133 255.71669557748987 -0.8038736541471394
-481.07345217563534 255.78006042832422 -0.8040820817200824
-481.22671081258693 255.8435625132442 -0.804291466735549
-481.3559982404712 255.98733256527368 -0.8051377771274133
-481.43740679186396 256.2911748072446 -0.8072543866339856
-481.614889730452 256.27459665753133 -0.8068278072655062
-481.9114357842601 255.8608465508226 -0.8032489005588559
-481.5609526563751 257.60712795087954 -0.816813166394013
-481.73822237864357 257.5920507617332 -0.8163980952255088
-481.8920082397397 257.65562130501166 -0.8166070869369833
-482.7205042953296 255.46714525751426 -0.7989424226763617
-482.8505629789586 255.6104014427574 -0.799783599104785
-483.02832262201593 255.59467932667985 -0.799362902027724
-483.03829185155416 256.1393572691324 -0.8033897126828151
-483.19256883255633 256.20255242854773 -0.803595077606758
-483.3468801664738 256.26589231723 -0.8038014583019049
-483.52521384432873 256.24929259298176 -0.8033732639826212
-483.7036238800939 256.2326949666416 -0.8029449546659748
-483.85808342808923 256.2963166107154 -0.8031531737527757
-483.79549452617795 257.08485762480467 -0.8091145748780377
-484.02257521058834 256.90654799964716 -0.8074024380561013
-484.12881920821616 257.13194164813905 -0.8088941519244486
-484.28348369561195 257.1959318024674 -0.8091047564968221
-484.36585177463166 257.50157534989836 -0.8112330986502343
-484.4722835322906 257.72714000664683 -0.8127257610650531
-484.62713253631466 257.7913041812451 -0.8129373420921979
-484.80632492249543 257.77444475685445 -0.8125057512764329
-484.9613513913884 257.83853796837207 -0.8127165019844256
-485.1164810192285 257.90254848419335 -0.8129264623308927
-485.320054265558 257.8050544134679 -0.8118545232896963
-485.49916123646705 257.78951790585603 -0.8114329002801242
-485.678600476849 257.77313137600413 -0.8110043982564434
-485.8342255547098 257.836530705872 -0.8112089737429642
-486.03792543131783 257.739646614415 -0.8101413468378382
-486.1934792580954 257.8038065940887 -0.8103516914649731
-486.34918025861947 257.8677381038199 -0.8105600881913233
-486.5050068570466 257.93151336452445 -0.810767110102347
-486.66083435227637 257.9955490134455 -0.8109760636827446
-486.8165251631322 258.06030473387966 -0.811190597029622
-486.8513410091422 258.5290289293589 -0.8146110154604003
-487.03152509174606 258.51251405452587 -0.8141802868743184
-487.18757731407106 258.57686018429644 -0.814391161274898
-487.392033654056 258.4797995203646 -0.8133209298791257
-487.5482370771311 258.54416662994157 -0.8135317014850898
-487.7046462083506 258.6081113221096 -0.8137389851696071
-487.9093588509797 258.5109773477769 -0.8126677712140236
-488.06572058416896 258.5756074303845 -0.8128802245009865
-488.2223168422813 258.63971935801595 -0.8130884298042815
-488.37881673532917 258.7044185792977 -0.8133011601433395
-488.6565315692699 258.36447268809457 -0.8103024004689132
-488.7893000509812 258.5089708695076 -0.8111481640739839
-489.0427222752622 258.25068765314586 -0.8087972341184013
-489.19964936843496 258.3150119715454 -0.8090064505444161
-489.3565763585764 258.37960295155654 -0.80921764692539
-489.4895322159237 258.52454147071796 -0.8100663593199897
-489.6225387276478 258.66958027308374 -0.8109157296286185
-489.48777869971485 259.7094552173659 -0.8188665254135685
-489.6692170809762 259.6932430972326 -0.8184358997060031
-489.9968086242528 259.1890032537328 -0.8141320809233434
-490.1784073595254 259.1727758602721 -0.8137010676144882
-490.36021667078205 259.15610970060374 -0.8132664366814879
-490.5409497088745 259.1433044704887 -0.8128623109289492
-490.67450771333716 259.28838557009743 -0.8137110522060311
-490.83172392250106 259.35468957432846 -0.8139344720423196
-490.9171241991913 259.6612215811859 -0.8160642252985895
-491.0262917153176 259.8886154417188 -0.8175657901091427
-491.1841621162035 259.953546411268 -0.8177778974338139
-491.34206775520204 260.0186285682043 -0.817991066962918
-491.5243222554242 260.00261693203345 -0.8175605341371011
-491.6821101212858 260.0686296564181 -0.8177808138813702
-491.84014341556883 260.1340917729567 -0.817996586056438
-492.2424361856871 259.3835753319719 -0.8117365933184146
-492.37650974046755 259.5296309369598 -0.8125916880284763
-492.51035200349463 259.67673239672536 -0.8134549430009201
-492.6688680305384 259.74164966820086 -0.8136658445980061
-492.8270835352961 259.8078416982628 -0.8138867242954575
-492.98545711660665 259.8737760903858 -0.8141054208960554
-493.0958977377561 260.1001771246166 -0.8155974376304584
-493.30241645212027 260.005748469262 -0.8145432203976952
-493.46162817785404 260.0696947051706 -0.8147457230717805
-493.4989288135546 260.54137057928784 -0.8181838066598743
-493.70674316504324 260.4434215056503 -0.8171012371931283
-493.8168194464054 260.6724158243433 -0.8186131303020829
-493.9269142874327 260.9016258635547 -0.8201265932498814
-494.25730725063346 260.3947684719649 -0.8157985505144438
-494.41656462001345 260.46019312348824 -0.8160119513539712
-494.69711467861606 260.1204556743607 -0.8130098909486492
-494.85676655839785 260.18509963358645 -0.8132168210684085
-494.96813981286317 260.4113989961559 -0.8147064881462711
-495.0786839920274 260.64074859281203 -0.8162202188379979
-495.26277619198135 260.62451717825985 -0.8157849118196623
-495.4713899421274 260.526582957979 -0.8147010856470729
-495.4841227808571 261.08374072542864 -0.8188158245916952
-495.64395174114316 261.1494430756256 -0.8190303097247238
-495.8038212670532 261.21528386179165 -0.8192457532817912
-496.0126782126348 261.117626623237 -0.8181635676403971
-496.1482727768333 261.26516945676195 -0.8190271030517806
-495.98935637410324 262.39761920898053 -0.8277065106564123
-496.1739277115549 262.3819894793507 -0.8272748514027057
-496.3341833735095 262.44792860636016 -0.8274903647752012
-496.49446994939854 262.5140395897497 -0.8277071011996213
-496.65482708012905 262.5801900862406 -0.8279240103318557
-497.03517639534806 261.91105738060025 -0.8223057592953182
-497.00026398756114 262.630654778008 -0.8277079744540288
-497.1608135479157 262.696987798856 -0.8279259096468081
-497.3214039382898 262.7634604859441 -0.828144811945208
-497.6050184318725 262.41884063003727 -0.8251012628140302
-497.76558200827964 262.48594858077496 -0.8253249273592473
-497.926316463527 262.55276192079725 -0.825546112418067
-498.038329397888 262.78277640576846 -0.8270622678575137
-498.15022736909873 263.0134583704838 -0.8285835754621758
-498.4341955384213 262.66900228730736 -0.8255406374407812
-498.59554857639284 262.7348545770267 -0.8257536295794239
-498.8055825540225 262.6381844148317 -0.8246767595600772
-498.96698981963664 262.7044080650329 -0.8248924160644151
-499.1285938933614 262.77025164130373 -0.8251049142376701
-499.3885177393622 262.5075519973552 -0.8227100774981295
-499.55032711657816 262.57325982396793 -0.8229212167521496
-499.7120066876264 262.6396804760944 -0.8231378702143388
-499.94731077782325 262.46013621279013 -0.8214025049292104
-500.1090194503704 262.52701310267105 -0.8216224958781595
-500.2707661070451 262.5940422585156 -0.8218435523435801
-500.3840034981903 262.82360331761396 -0.8233542475721265
-500.5458950721963 262.8907099157251 -0.8235756311825639
-500.7077922663435 262.9580776251035 -0.8237989437536726
-500.894031973498 262.94430089802097 -0.8233781888330896
-501.0319678490315 263.0923784984327 -0.824241690848396
-501.04670957967596 263.6528330330282 -0.8283774707855969
-501.2583065657212 263.55507886330133 -0.8272898799937707
-501.3220721436538 263.9521245055795 -0.8301286301875166
-501.5830647135743 263.6896884916441 -0.82773392318785
-501.7211523710867 263.838677632994 -0.828603933217039
-501.88348174929865 263.90685353930365 -0.8288325070528799
-501.9972927413395 264.1376264225235 -0.8303512183752559
-502.1599400958933 264.20530515325595 -0.8305755572817475
-502.32277025065116 264.2726544226995 -0.8307971375746774
-502.461115869937 264.42220194807027 -0.8316708521023202
-502.6241013013352 264.4895979998003 -0.8318925141965678
-502.81178310556436 264.4746490486922 -0.8314605903169081
-502.95047525902135 264.6238897197711 -0.8323314340852335
-503.11365642078283 264.6914795714729 -0.8325542003092892
-503.2275346298627 264.9243167124026 -0.8340881223798533
-503.4404417427561 264.8260940363811 -0.8329948129184572
-503.70294171920483 264.56220894245024 -0.8305867698152269
-503.81708766830235 264.79500429433597 -0.8321199237922201
-503.98069784231967 264.86257409854574 -0.832341807561022
-503.9956816343625 265.4277663565705 -0.8365123478999976
-504.33307647303144 264.9143798550833 -0.8321238577311192
-504.47208128935466 265.0651398600505 -0.8330054468485741
-504.6360274306149 265.13272380307177 -0.8332268610802203
-504.800082246045 265.20022917266203 -0.8334475061241733
-504.9393921700367 265.35082953558236 -0.8343273882716176
-505.1035275952671 265.418637467704 -0.8345501417898618
-505.26773896918866 265.4864769412047 -0.834772999607992
-505.50650269759797 265.3050964006876 -0.8330180852059925
-505.6710154491043 265.3724946994543 -0.8332371522465678
-505.8355373563916 265.4401486604186 -0.8334581017460323
-506.1733739440938 264.92802129397904 -0.8290782043903846
-506.3383005861225 264.9948832053671 -0.8292925813664169
-506.5034022092092 265.0614463389569 -0.8295044409035768
-506.4444505058402 265.8782232229547 -0.8356692542391784
-506.6093100781625 265.94618471819865 -0.8358919095572332
-506.6747932162202 266.34706788724856 -0.8387562136919655
-506.9392594064431 266.0822000715296 -0.8363375123069545
-507.1292727710719 266.06682661889676 -0.8358984497988331
-507.5173331975032 265.38879581470434 -0.8302009504195098
-507.6826258276077 265.4567321837918 -0.8304226786590334
-507.8233127754228 265.60732517508785 -0.8313001513493532
-507.9640416510863 265.7580696255253 -0.8321786768221386
-508.07990151185516 265.9923587568089 -0.833719990270879
-508.2451140521273 266.06172487096757 -0.8339524703363281
-508.3858737565772 266.2132428783313 -0.8348366862183525
-508.5516751119522 266.2812183370692 -0.8350578347449868
-508.71768559289364 266.3487834596494 -0.835275579201209
-508.88365701426227 266.4167693365627 -0.8354965142606261
-509.0001567476499 266.6506775004145 -0.8370339050986786
-509.1662280287452 266.7189127395485 -0.8372565207392881
-509.33237558698613 266.7871832215859 -0.8374792675992921
-509.4985612358254 266.85561700600357 -0.8377031617314401
-509.6647878340868 266.924204731313 -0.8379281287444655
-509.7812797669879 267.15961170595364 -0.8394766605580912
-509.8726339167255 267.47948746664383 -0.8416953007888424
-510.039134906002 267.5480386089888 -0.841919526986544
-510.180686503086 267.70042505467507 -0.8428088362780954
-510.3471656463897 267.7696348989567 -0.8430379902404752
-510.51385986942876 267.83841684741185 -0.8432635995823716
-511.0557979334007 266.6509114632885 -0.8335204700562713
-511.2227992337936 266.7192269206183 -0.8337420909170419
-511.51448557694414 266.37028664851385 -0.8306526627112021
-511.6070426850508 266.6884857281627 -0.8328567976673753
-511.774152278549 266.7573147652876 -0.833082046321465
-511.94140593709335 266.82595488103925 -0.8333056460115245
-512.1088037583503 266.89440594167723 -0.8335275955777206
-512.3510811751379 266.7123687327372 -0.8317617974146287
-512.5184825002431 266.7813915075724 -0.8319879855729937
-512.0850588975177 268.863030611985 -0.8481838803765527
-512.352644633894 268.5971296490661 -0.8457521741229925
-512.5202418620918 268.666411534146 -0.8459799509993786
-512.6630447666346 268.81903590111506 -0.8468688869411949
-512.8307936050924 268.8884018520144 -0.8470970286928718
-512.99858729512 268.9579130488133 -0.8473261720985761
-513.1664938856806 269.0273417656468 -0.8475545100861837
-513.3345118609527 269.09669328134515 -0.8477820844393023
-513.5277769688972 269.0817688849001 -0.8473407953420633
-513.7211320982677 269.066836089586 -0.846899289951466
-513.9145101686355 269.0521198114638 -0.846459352822194
-514.0829263282765 269.12131843366313 -0.8466851111462006
-514.4018919687169 268.6864703059547 -0.8429112284084681
-514.5952858938444 268.6725759851183 -0.8424773666334318
-514.7890743181839 268.6576542788023 -0.8420352026311662
-514.9579226577332 268.72658148264617 -0.842258206827978
-515.1267481588327 268.7958829912414 -0.842484029033642
-515.2955122841688 268.86568814657335 -0.842713695422276
-515.4890402351805 268.8528228672391 -0.8422872443849769
-515.658258480978 268.92170166759945 -0.8425092566750436
-515.7777660941882 269.15743583160327 -0.8440550607932664
-515.9973230154676 269.0582511072907 -0.842943237531415
-516.2416062279584 268.87650990671443 -0.8411762070906548
-516.4111469559498 268.94549928533826 -0.8413984888995856
-516.5557489201508 269.09835244278963 -0.8422860470382716
-516.7998999354872 268.9179353452244 -0.840529073208188
-516.9943293943497 268.9044209699105 -0.840096261491226
-517.1640442945363 268.97402133565413 -0.8403227816214667
-517.3342403436144 269.0423097407625 -0.8405387385781182
-517.4797932500442 269.193480239917 -0.841412178016185
-517.6497289994429 269.2632438485473 -0.8416395324575205
-517.6936126403048 269.7557372890491 -0.8452209151010948
-517.737518053401 270.2484750886434 -0.8488040747116088
-517.9328774194536 270.2339551035766 -0.8483622068827117
-518.3554824512709 269.4581391491254 -0.841879648480699
-518.4753617881416 269.6971715712941 -0.8434493042394706
-518.6709932630254 269.68262607042647 -0.8430067816638029
-518.8415242395715 269.7525066849813 -0.8432339869474959
-519.0625291046409 269.6535180460537 -0.8421211434825864
-519.2076194790217 269.8092709236107 -0.8430293948562166
-519.3029464644401 270.1321268985718 -0.845263367524467
-519.2967126199752 270.7957136205645 -0.8502007013372577
-519.4168799836622 271.0359389803859 -0.8517787213061183
-519.562643242004 271.1906773331049 -0.8526782898924239
-520.289380155904 269.39826776437764 -0.83812815554586
-520.4356985038801 269.5517226375565 -0.8390172459713767
-520.6069792071786 269.6218066528147 -0.8392446793230306
-520.8034983980084 269.6075895749743 -0.8388030770565251
-520.975051916843 269.6773667103205 -0.8390277655183809
-521.1464031328118 269.7481270039414 -0.8392600991931545
-521.3180706244342 269.81813222392634 -0.8394862861313186
-521.4898241277592 269.88815450223575 -0.8397124526347852
-521.6112968258889 270.12705222026926 -0.8412783836405424
-521.6817785034411 270.53721641096115 -0.8442030453967959
-521.9546153736463 270.2692641992603 -0.8417471305311324
-522.0509715649333 270.5933028265276 -0.8439881236223528
-522.2230329499881 270.6638314459326 -0.8442175228777842
-522.4205440219321 270.6493368316372 -0.8437721639654114
-522.5927365880344 270.7200377276699 -0.8440026179346205
-522.7900869194794 270.70669137323756 -0.8435660589282747
-522.9625605834262 270.7770627633973 -0.8437935858628407
-523.1099163609233 270.9319657964572 -0.8446916538595133
-523.2063947345863 271.25778272558205 -0.8469456406824634
-523.3789800387276 271.3287099407683 -0.8471771033285336
-523.5009054911059 271.56982532092707 -0.8487587247309989
-523.6990585316756 271.5556337049441 -0.8483145175979416
-523.9736396525576 271.2854481715513 -0.8458390391681974
-524.1465301951222 271.3565815484726 -0.8460715104613996
-524.2434020072867 271.6829606997956 -0.8483289986118052
-524.3401635755562 272.0100289166578 -0.8505917911170968
-524.2077464434888 273.1060205349593 -0.8589552081324996
-524.380956867991 273.17734919522786 -0.8591885822678478
-524.7580763346979 272.56510536610625 -0.8539982149952152
-524.9567659744339 272.5515859174515 -0.853558080649691
-525.0032170599674 273.04898058799535 -0.8571714611845209
-525.4309931851853 272.26771689696875 -0.8506396144605333
-525.6304391084722 272.2525784282569 -0.8501861667530761
-525.8043865443626 272.32327456991203 -0.8504135845752216
-525.9527917060593 272.47995741678164 -0.8513230720022307
-526.2286658041361 272.20938406850826 -0.8488425033072531
-526.402707121896 272.28069546994533 -0.8490743284697828
-526.6783525013695 272.011493537372 -0.8466043327024977
-526.6744745478302 272.6802554317674 -0.8515760599993314
-527.0269315164124 272.1539997931293 -0.8470662689304618
-527.0230698809314 272.82335573524296 -0.852042378717897
-527.1976125910198 272.8945533845726 -0.8522725019623749
-527.3720672128752 272.9663598700792 -0.8525072960277384
-527.5211686526734 273.12353580260765 -0.8534192536313299
-527.670093217356 273.28162227014593 -0.8543382737884144
-527.8446701917962 273.3539630416159 -0.8545768253341066
-527.8153623399346 274.11065920937887 -0.8602448894222903
-527.9647883786803 274.2680261332379 -0.8611577099367196
-528.1142156628885 274.4257069528384 -0.8620728587807776
-528.2892548388708 274.49777220438034 -0.8623085744106902
-528.4643776878801 274.5698719048825 -0.8625444027183562
-528.639584269933 274.64200607905576 -0.8627803437848343
-528.8404653827732 274.628306792829 -0.862335126822984
-529.0158452847402 274.7004892662258 -0.8625711300986154
-529.4472888842033 273.91375002996745 -0.8559923597999273
-529.6485336970256 273.8997550805461 -0.8555443258112518
-529.6192940876867 274.659508672986 -0.8612349724739374
-529.7950274202674 274.73176597259794 -0.8614709269119203
-529.9708104352969 274.80417359594287 -0.8617079124421707
-530.2747920896636 274.4466776310157 -0.8585339389809405
-530.2970277581169 275.0350101653753 -0.8628638791171284
-530.6014001933038 274.67682277139164 -0.8596841040318282
-530.7005674898479 275.0076235080057 -0.8619704940973634
-530.9279751059182 274.908357982418 -0.8608446461557833
-531.1042049020109 274.9811683288388 -0.8610838576260562
-531.2551786975569 275.1390638248513 -0.8619979557408897
-531.5086492246098 274.9532661065039 -0.8601850980302288
-531.6853652421078 275.0253978740386 -0.8604184400755344
-531.8363388115787 275.18425324343224 -0.8613396649749347
-532.1411691460993 274.8270029720752 -0.8581660643653777
-532.3696079780127 274.72647289502567 -0.8570290646092644
-532.5721807249942 274.7130804237611 -0.8565832328215492
-532.7494939954001 274.78479472389023 -0.8568124541492921
-532.7467906226109 275.46111314391067 -0.8618382748908289
-532.9240253477979 275.53374438368803 -0.8620744381765917
-533.332010911201 274.8320767462754 -0.8561673793756768
-533.5095827663437 274.9042031827306 -0.8563992183484288
-533.6619238194712 275.06135309952987 -0.8573054430241882
-533.8648288235379 275.0490771513597 -0.8568673324866722
-533.8885385601635 275.63871782844166 -0.8612044640057661
-534.0662686613963 275.7116106681376 -0.8614417223912483
-534.0379728497529 276.4765279012418 -0.8671690916197008
-534.4992665652067 275.59803728947463 -0.8598580865509575
-534.6515049346285 275.75748126022904 -0.8607815185858954
-534.829589272999 275.8304726003636 -0.8610189025193904
-534.8530921686425 276.42281333601585 -0.8653764338121164
-535.2375475178376 275.80353254175697 -0.8601212774749456
-535.3901466917393 275.9630643633251 -0.8610447447614433
-535.5685461004362 276.03629116019874 -0.8612833380246343
-536.0043150079256 275.24562397947716 -0.8546680091161534
-536.1833415448452 275.31737664729195 -0.8548945855903867
-536.3872676181296 275.30584086931947 -0.8544602242652672
-536.5408189123963 275.46378987958724 -0.8553703121315266
-536.3587129291158 276.74925783775996 -0.8652254288797394
-536.8989266547427 275.609387508098 -0.8558389054283566
-537.0779852055405 275.68265917762267 -0.8560767046987507
-537.1541637987106 276.10176483170335 -0.8590580088587103
-537.3074949175556 276.2620994965791 -0.8599861850681805
-537.4866423300268 276.3360603059228 -0.8602289487721464
-537.588692717374 276.6692830696395 -0.8625283905977881
-537.7678886266384 276.7437400638314 -0.8627747552018832
-537.766659035431 277.42451896562864 -0.8678311717600877
-538.1014602795805 276.97700133685 -0.8639361476327849
-538.2553518235312 277.1374358253408 -0.8648641066299092
-538.4610574276245 277.1241635829206 -0.8644138102337706
-538.6410727126826 277.197509033929 -0.8646505212533384
-538.8467630672953 277.1849395092816 -0.86420546812883
-539.0268201487926 277.2588000424101 -0.8644459318056761
-539.1035658242038 277.68003018077684 -0.8674420390789237
-539.387300842638 277.4062770645969 -0.8649244205278706
-539.5929969764812 277.3949958860045 -0.8644889226021064
-539.7480596140821 277.5541378291631 -0.8654052827565692
-539.6953920249757 278.4114707604099 -0.8718604508654266
-540.134635918087 277.6165842408285 -0.8652078540064281
-540.2122834171623 278.0368041583198 -0.8681949189564762
-540.4449948586542 277.9364089157664 -0.867051614037905
-540.6771376944808 277.8382479172459 -0.8659258691633909
-540.5731612228437 278.86969858708653 -0.8737614802542453
-541.0653970420288 277.8983358590954 -0.8657080523756804
-541.246624380609 277.9722253522145 -0.8659467299062271
-541.4280805968908 278.04567774754986 -0.8661817709033812
-541.6350831261532 278.03362530663173 -0.8657383129340701
-541.8167896385369 278.1068995078656 -0.8659716029533229
-541.8944517570325 278.5301153430192 -0.8689808855269234
-542.2313757877877 278.08249115479214 -0.8650814402776632
-542.4132235505685 278.1562859233776 -0.8653183536106894
-542.5951561831523 278.2301289010637 -0.8655554797347236
-542.7770720955693 278.30436172157016 -0.8657955287645791
-542.958897170292 278.3792337246517 -0.8660404786177196
-543.1409146219264 278.45379341993424 -0.8662827808340694
-543.2714814414844 278.701596109809 -0.8678992740547642
-543.4276598190203 278.8636668118206 -0.8688354702952097
-543.58394924914 279.02570278982466 -0.8697712188323976
-543.7402813348994 279.18793416066376 -0.8707083450850632
-543.9223683700325 279.26394360795695 -0.8709612917218124
-544.0270386730008 279.6004874001632 -0.8732809098056578
-544.1836302228977 279.76286631245193 -0.8742186877648237
-544.3663795058052 279.83766494096056 -0.8744615124550705
-544.5751181917394 279.82544394820377 -0.8740138342549812
-544.7579364164336 279.90068221522546 -0.8742598050667425
-544.9150578629302 280.06263348148985 -0.8751935019194548
-545.1501812790972 279.96272772182095 -0.8740497065668933
-545.2550710293427 280.30093197791876 -0.8763812771925927
-545.4383214962509 280.3760702394695 -0.8766257663930332
-545.6478880028903 280.36308162470266 -0.8761709735451859
-545.8573753819022 280.35069361889134 -0.8757207751137912
-545.988670691665 280.60150428149075 -0.8773583547305748
-546.1722753016082 280.67680542292646 -0.8776034476128984
-546.382114908013 280.66424589255416 -0.877151373416666
-546.5397884120483 280.8274032762526 -0.8780930808343896
-546.9586420671005 280.11280378980064 -0.8720714273989643
-547.1687505207318 280.1003371809624 -0.8716195833490588
-547.3009953293104 280.34999899140064 -0.8732470098759109
-547.4328390225744 280.60135690008053 -0.8748877146748555
-547.6171093378446 280.67678727140407 -0.8751326286355265
-547.8796340818895 280.48943620304306 -0.8732927555480501
-548.0639928031268 280.56524569313217 -0.8735403330288705
-548.1704629235038 280.9032994575441 -0.8758680839049475
-548.328891080331 281.06699140425843 -0.8768124696188124
-548.5136079524281 281.14262847452875 -0.877058154558938
-548.6984505984419 281.21818466184345 -0.8773030239238437
-548.9876195638952 280.94325345458935 -0.8747673667417075
-549.2246606723696 280.84395006726083 -0.8736247643107617
-549.4360152394485 280.83136482484457 -0.87316990861882
-549.5435472168675 281.16827648280076 -0.8754873643531482
-549.7288330282041 281.2440491798666 -0.8757330833355468
-549.8879586465703 281.40814639698357 -0.8766792852347294
-549.7583229634035 282.54376174687803 -0.8853321248240036
-549.9962991745385 282.44337632469507 -0.8841798899931064
-550.5496243939292 281.28269271631433 -0.8746164214803116
-550.7609305737826 281.2726626754406 -0.8741806191407591
-550.946930770241 281.3480908790927 -0.874422558889421
-551.080675899624 281.5996283034524 -0.8760613449890684
-551.2402289121934 281.764709792676 -0.8770141235806364
-551.3998928114255 281.92976769383165 -0.8779665374294154
-551.507583794357 282.27000123310387 -0.880308383940644
-551.7201217441568 282.25790148162406 -0.8798551090849287
-551.880277341309 282.42235511340255 -0.8808021958407153
-552.0932102038743 282.4096164235587 -0.880343502002404
-552.3848178737319 282.13255339232205 -0.8777878472822636
-552.5714604418001 282.20894028526567 -0.8780358061744664
-552.7056808822315 282.4620338437296 -0.879685332709073
-552.8922472097383 282.5393762673529 -0.8799405161302047
-553.1056497146313 282.5267804309173 -0.8794820797858165
-553.319151750218 282.51419432557014 -0.8790235454890762
-553.401002676972 282.944892377202 -0.8820812154467035
-553.2978613556435 283.99837241128887 -0.8900789512601932
-553.4852668605272 284.07465863884056 -0.8903248581498815
-553.9892664922959 283.0860483078097 -0.8821232624449067
-554.2031057188478 283.0740676548592 -0.8816686466141164
-554.3904397047241 283.15161926564286 -0.8819240704003164
-554.5256325030044 283.4049718879288 -0.883573857561089
-554.7132123689802 283.4824005233021 -0.8838279478815139
-554.8219979813795 283.8253272226325 -0.8861879174191927
-555.0099227239643 283.90230265834873 -0.88643805330139
-555.197905097643 283.9794354141629 -0.8866892586269159
-555.3859806239517 284.0566062188816 -0.886940587147194
-555.679936418037 283.77780543087033 -0.8843680154594722
-555.8682583156025 283.8548434578903 -0.8846179368989624
-556.0567087260962 283.9318013013227 -0.8848670432718677
-556.4301897912661 283.3863807158433 -0.8801790142199479
-556.433854193887 284.08595164542936 -0.8853665798367842
-556.6225496087234 284.16314347268013 -0.8856170044177816
-556.8112683273614 284.24061026569024 -0.8858694305801009
-557.0001510354562 284.31787877703437 -0.8861201042137736
-557.2156489260176 284.30591686811084 -0.88566279120829
-557.4047603477165 284.3831218002328 -0.885912601707048
-557.5674324220977 284.54967749482034 -0.8868709916221746
-557.8626007384801 284.27059267383873 -0.8842942377573308
-557.839928595149 285.06176149667084 -0.8902068903958593
-558.1619341487725 284.6930380916261 -0.8869187398406098
-558.2985066837815 284.9488819706017 -0.8885846634976815
-558.4613475330516 285.1166592982997 -0.8895518345892128
-558.6511290468047 285.1941012691509 -0.8898022590712458
-558.8410508726079 285.2714272496388 -0.8900515824694821
-559.0309059037818 285.34933474681105 -0.890305337447785
-559.2207728491471 285.4275590726749 -0.8905614242871707
-559.4375567622016 285.4155173759713 -0.8901013197980205
-559.6809748911063 285.31415612836537 -0.8889325343889141
-559.8446322484381 285.48169264045805 -0.8898965213517727
-560.1144923305679 285.2920079398878 -0.8880267791347478
-560.2786522875814 285.4585685288044 -0.8889826610891873
-560.3629953543862 285.89424528993345 -0.8920730329413118
-560.7127985646712 285.4364383749269 -0.888075964409154
-560.9036297639497 285.5142699225686 -0.888327486254866
-561.1215638006827 285.5011962352691 -0.8878577532214535
-561.1794152885466 286.02754313006267 -0.8916665892282936
-561.3704723929508 286.10570061007985 -0.8919201445966678
-561.747562940584 285.55773915928074 -0.8872070791115902
-561.7529081898349 286.2620135530494 -0.8924266904382989
-561.970925856537 286.25045730490456 -0.8919680803358006
-562.1623709406075 286.328748838699 -0.8922219675109204
-562.3539116967762 286.40707949763225 -0.8924759815627681
-562.5453684260211 286.48605476511415 -0.892734925075672
-562.736977553996 286.56487867084184 -0.892992484228273
-562.6622594667963 287.54107300708836 -0.9003678229396996
-562.8009152201184 287.7989953006787 -0.9020456150627751
-563.0461213107196 287.6984037972882 -0.9008794870370593
-563.2382109966803 287.77707882714674 -0.9011351191286963
-563.4834605190782 287.677055774278 -0.8999731371872031
-563.728494973991 287.5781130327118 -0.8988195435803732
-563.9214515288206 287.6549510817607 -0.8990600549994952
-564.1669636291481 287.5551158108129 -0.8978990181977906
-564.3335277354829 287.7215853352336 -0.8988501129358042
-564.6062246212288 287.53089151519833 -0.896968027732953
-564.6120582108169 288.2395587021863 -0.9022194174523861
-565.0188305924686 287.59790865240274 -0.896760022412991
-564.9978190136165 288.39777170194924 -0.9027343841040079
-565.19084458293 288.47693773989397 -0.9029920612200613
-565.6778103417697 287.5661599626762 -0.895397446695938
-565.8710993079903 287.64514963510493 -0.8956533640075008
-566.0644449095552 287.7243151485934 -0.8959104899706745
-566.2575342943805 287.8047108825698 -0.8961771876063835
-566.4504800217358 287.88595793623165 -0.8964504513600673
-566.4314349227554 288.68186551617504 -0.9023920837116179
-566.7850206476304 288.2225830649027 -0.8983775921929578
-566.9782566406412 288.30395950534586 -0.8986513201962225
-567.1199050830671 288.55953752076033 -0.900306590134619
-567.3670914562261 288.4598559276385 -0.8991438312572768
-567.8031433693069 287.7240928731316 -0.8929356436858598
-568.0241633337373 287.7132979611574 -0.8924775520130765
-568.2455185817211 287.70173872155533 -0.8920132123955682
-568.4933708756715 287.601249219369 -0.8908433166176337
-568.6879563930748 287.68063696145896 -0.8910999722033921
-568.7221042465656 288.3010998340952 -0.8956480879621154
-568.970595123615 288.1995653257622 -0.8944693417491294
-569.2191727088322 288.09810159909074 -0.893290972769023
-569.4141764040371 288.17756699003337 -0.8935474897547238
-569.6359321012612 288.167236769002 -0.8930915899794059
