539.2719579545444 752.0645540425483 -0.6370809235260708
539.3809973851024 751.9983109241596 -0.6380428997236436
539.9125060982992 752.5756050283758 -0.639523494906939
542.9936268296121 757.0353940681495 -0.6441384847278755
542.6771737021392 756.3200477883136 -0.6445815546259155
542.7870384111211 756.253940833885 -0.6455485393267963
542.8971966736257 756.1882788989078 -0.6465158920310614
543.0073578405844 756.1226194596642 -0.6474832551746772
540.579992816833 752.1973093807272 -0.6453152553169161
541.5260991090471 753.4037797847213 -0.6473132540787674
541.6353716741258 753.3374010731638 -0.6482772655272697
541.9571658305039 753.5940333692524 -0.6495047253930579
541.433708517949 752.566120137882 -0.6496838505930782
541.334432122365 752.1830758956957 -0.6503882422616698
541.4404424403139 752.1119718531664 -0.6513473794331617
541.5466332923096 752.0411428205234 -0.6523067382024124
541.6560869923381 751.9752676518962 -0.6532701606981277
541.5533747976403 751.5873950644457 -0.6539688899346174
540.8210773450328 750.2444180257589 -0.6538807480370679
540.9303167915581 750.1786063657679 -0.6548425178993966
541.2497296274609 750.4315293650203 -0.6560673463541775
541.3581493989353 750.3643931843055 -0.6570283806244674
541.2565754738065 749.9789488772763 -0.6577260322328016
541.156301129312 749.5956295848673 -0.6584247609678755
541.0574643006446 749.2146427515614 -0.65912474567034
544.5573956763191 754.2847743462715 -0.6643523135026612
544.4597085548087 753.904494554413 -0.6650574316556686
544.3580756868614 753.5183940271937 -0.6657570298231121
544.4694413996169 753.454834910695 -0.6667249254608691
544.5755341590938 753.383293926628 -0.667686168812736
544.8927443750706 753.6311353595679 -0.6689144465768209
545.2162389410976 753.8883254927974 -0.670151237687719
545.3260497557455 753.8222502024914 -0.6711177507582988
545.4355711829066 753.7557357507397 -0.6720839026790486
544.9043101408158 752.7207879927404 -0.6722361518071125
544.1617188876868 751.367004152034 -0.6721180029530274
544.6969027294516 751.9440384877698 -0.6736239891183118
544.5935951861247 751.5564970908322 -0.6743175747079135
544.9161486795336 751.8120949611093 -0.6755537763928601
545.4528088192321 752.3907210151681 -0.6770639168865955
545.7765774996071 752.6477541157175 -0.6783030924643754
546.1002789184537 752.9045253722298 -0.679542753566011
546.210354229561 752.8389114397971 -0.6805093829745488
546.5346142554237 753.0962838082332 -0.6817506201701917
546.6441420533414 753.0297613173437 -0.68271684315431
545.4742342704209 751.0348097049218 -0.6820393621607082
546.651285462481 752.577385943365 -0.6843767788114974
546.5473990345552 752.1894269814115 -0.6850679991118795
546.4404858177229 751.7970655665624 -0.6857547617453292
548.7007643214872 754.9693078212966 -0.6894946049449118
548.811384657945 754.9038636655823 -0.6904642574250488
548.7050559391269 754.511902431693 -0.6911534846769314
549.6755407947422 755.7403392396119 -0.6932354760809858
550.2182860273808 756.3246937268741 -0.6947657070442688
550.3288744441937 756.258796571215 -0.6957367616459464
548.284667579995 752.9530451750046 -0.6939111547896459
548.3921556706063 752.8832783201804 -0.6948753633194542
548.0733631829884 752.1728897418477 -0.6952851897177652
547.9749888765471 751.7939824289333 -0.6959808414550253
548.0816093216181 751.7231454220512 -0.6969430884205963
549.2618999716657 753.2646527765203 -0.6993058797179401
548.3005678468364 751.5900575021806 -0.6988750412382956
549.9130288643712 753.7794512277577 -0.70180552954821
548.9453903719893 752.0960188609611 -0.7013642076504993
549.0558500130616 752.0307840306409 -0.7023320443018406
548.9505564578578 751.641944669936 -0.7030170354124152
549.0603933839241 751.5758511218071 -0.7039837873806505
553.2848021684991 757.6780681711791 -0.7103555373063841
553.1777026706576 757.2853223234907 -0.7110424300964837
553.2882379960769 757.2188394700697 -0.7120152188498423
552.5280904177516 755.8480396465915 -0.7118408479884692
552.6387677908929 755.7820855153183 -0.7128126978425371
552.7488527782227 755.7152424860826 -0.7137837724829978
552.8592368052655 755.6488456191486 -0.7147552475744874
552.9699200316245 755.5828948253802 -0.7157271244973344
552.8640146797735 755.1928813763498 -0.7164122276693661
553.1903937471805 755.4496520945412 -0.7176697156281762
553.3007810147776 755.3832532783866 -0.71864121923943
553.1935632162676 754.9915101327583 -0.7193237506209016
555.487146310729 758.1884979456552 -0.723197100844402
554.5044959764444 756.487967773053 -0.7227167870435665
554.6150382093367 756.4214747030044 -0.723689658194246
554.2887087613516 755.7024494283455 -0.724080094931935
554.3994753519202 755.6364475892868 -0.7250527087437035
551.9018312925252 751.6763139842087 -0.7225409857766749
552.0118409417345 751.6101308130575 -0.7235092069914799
553.6407008301641 753.810348232171 -0.7265102831229342
552.8824449251213 752.4483133692167 -0.7263172644334759
553.4266143132296 753.0294168536524 -0.7278685633224313
553.9718365694063 753.6117720838055 -0.7294224095437016
553.6470218472899 752.8968232834877 -0.729808400111267
552.2421829157283 750.5725649981412 -0.7287407310565754
552.3533847287538 750.508302863431 -0.7297100413622388
553.3298869143116 751.7330169621247 -0.7318453584493909
554.3070713249143 752.9581146100322 -0.7339838499976281
556.6016087585124 756.1439916374543 -0.7379031549001525
554.5297599662732 752.82873681118 -0.7359274101368669
554.6395984429369 752.761803220644 -0.736897166554968
554.9656081065455 753.0164905673406 -0.7381596210889256
555.074690816843 752.9483514899048 -0.7391286430838022
555.1846808768337 752.8815609072884 -0.7400988988655399
555.7318182344235 753.4646860009548 -0.7416627498049024
556.060425753776 753.7226781631834 -0.7429307188871803
555.7341290238311 753.0073240803747 -0.7433082883528641
555.8444606195567 752.9409554056513 -0.7442793139280752
558.1463292845089 756.1296144342747 -0.7482375066085183
556.9402070418138 754.1076327140013 -0.7474152904989637
557.0506962803315 754.0411759164892 -0.7483876795847095
557.819312394921 754.9514996533308 -0.7502596804192194
558.149636906193 755.210997834863 -0.7515337115679586
558.2602842378352 755.1444526809732 -0.7525074679946897
558.1511375227727 754.7519294242976 -0.7531799392164089
558.2614456611471 754.6849574510287 -0.7541529589490779
557.7136487544418 753.6424248804037 -0.7542221640906632
557.6051405646341 753.2513988810703 -0.7548935493239242
557.7152942365896 753.1845105056888 -0.7558652428188566
556.5129108703633 751.1733701859549 -0.7550292746296918
558.3749044248965 753.7013064453504 -0.7584142325383709
556.5146598315499 750.7169429633539 -0.7566677416178891
556.6260585487839 750.6524441757813 -0.7576392061942556
557.1724562624279 751.231675291302 -0.7592120125119095
557.2848634305133 751.1685065150061 -0.760185449779442
557.394832495511 751.1017282503548 -0.7611555218945227
558.5992698921012 752.6534117463469 -0.7636427861776838
558.4898917323812 752.2619519238624 -0.764309926333226
557.9467307059053 751.2294976450149 -0.7643740706093354
560.0310423651568 754.0800923715624 -0.7680889482559223
559.9209877920538 753.6874696259484 -0.7687557305278574
560.03131422475 753.6204993695195 -0.7697288659254582
561.2459413561716 755.1841456121165 -0.7722413243219535
561.356759413107 755.1175011281802 -0.7732165712941423
561.4678789243551 755.0512998625412 -0.7741922452845529
561.5787011226456 754.9846579928887 -0.7751675105073446
560.8072309320642 753.6164836531425 -0.7749084078256487
561.8006504008447 754.8518188099397 -0.777118486017514
561.027029983539 753.4811040285638 -0.7768541242000992
561.1383156356159 753.4154557872826 -0.7778289330581174
561.2480698562962 753.3475484914676 -0.7788015991260977
560.257861869205 751.6589828769692 -0.7782283297356116
561.248221741208 752.8886148686549 -0.7804383679340958
562.4650013022655 754.4510535374793 -0.7829694590239455
562.5761327787975 754.3848518873757 -0.7839452140367484
564.465096379698 756.9355147978324 -0.7874287062104486
563.4633686856113 755.2310067091024 -0.7868355739404365
560.4781042255765 750.6090613114304 -0.7834366603595413
563.4636853828727 754.7716603882511 -0.7884749108561095
565.8038408872627 757.9830957867736 -0.7926067957724285
565.9148371839128 757.9157287750049 -0.7935858045505597
565.1328838412566 756.5359060499112 -0.7932984340307598
565.2443328607824 756.4695203077404 -0.794276959058891
565.3551778479613 756.4022452783668 -0.7952546327304049
565.4654192956882 756.3340823335876 -0.7962314534369739
565.5765706666938 756.267254440961 -0.7972095729758735
565.6883306191027 756.2013182538284 -0.7981885655347583
565.7994849781498 756.1344911324028 -0.7991667022159845
565.9103332807795 756.067213235537 -0.8001444081787099
565.5751604128077 755.3456466717871 -0.80048503263356
565.6865427268294 755.2793078915303 -0.8014629462230118
566.4671227605571 756.1941646904728 -0.803398433115035
565.9102542328474 755.1480125970036 -0.8034201499569917
566.4658136781549 755.7326171676709 -0.80503479296857
566.5769720227892 755.6657842208858 -0.8060129769447144
567.3602521060867 756.5834776602758 -0.8079563273796566
567.4718320291043 756.5170197307898 -0.8089359811183954
566.9104536511461 755.4652848613221 -0.8089475746227208
568.8171889417184 758.0267027567629 -0.8125110382814
568.703635408897 757.630383638681 -0.8131677030220885
567.2445527603738 755.2656736373239 -0.811883117288005
567.3557173774475 755.1988377853953 -0.8128613533740463
567.4668840680816 755.1320032710278 -0.8138395984963154
568.0273420680337 755.7220152982546 -0.8154675773099598
568.8114690133363 756.638623892854 -0.817420431918606
569.5981688541666 757.5585134142719 -0.8193787200626161
570.6118395124486 758.8095046815995 -0.8216678067395264
570.7237884890471 758.7428477294025 -0.82265062661304
571.0616057779844 759.0060002684957 -0.8239615116405616
569.3682944015981 756.3038693499611 -0.8223203350742665
569.2543599957468 755.9080920185987 -0.8229725332996622
569.3659968346132 755.8416105600686 -0.8239526497871452
570.6045801555406 757.4190920458873 -0.8265752706618628
570.9417003522138 757.6810588351967 -0.8278857415078278
571.052966672508 757.6135534448781 -0.828867041033277
570.0368334155006 755.9026160206251 -0.8282009276434223
569.9229789169597 755.5074226702038 -0.8288515763480859
570.709677643904 756.4245032320939 -0.8308198689327355
570.821132206174 756.3575050610921 -0.8318006137128009
570.2563678851824 755.3057236078434 -0.8317898332433629
570.3680113618084 755.2392355883219 -0.8327700173030053
570.4793500106879 755.17230195158 -0.8337497604381952
570.5906907435158 755.1053696535981 -0.8347295126744143
570.7017239140396 755.0379881899576 -0.8357088184297936
570.8130649805667 754.9710530974905 -0.8366885828476711
569.5809532456182 752.9504785661868 -0.8356883407341229
569.6893372797038 752.8797139096492 -0.8366620699259784
569.576536760022 752.4874604497318 -0.8373092563743398
571.2581284029669 754.7028586384234 -0.8406072563124667
569.5725954014765 752.0254446662378 -0.8389297623325547
571.4808190686338 754.5689824553486 -0.8425668633281589
571.1409820866286 753.8468883582013 -0.8428783193334652
571.4778038858339 754.1074355181452 -0.8441918636912078
570.6876804224503 752.732197877149 -0.843833762768611
570.799758969512 752.6667117793901 -0.8448132719574915
570.6900417114172 752.2794692630105 -0.8454631231906546
570.8025652814623 752.2147017329727 -0.8464430337091358
573.3924633988134 755.7420640636884 -0.8511113945199895
573.7309010588804 756.0039134062343 -0.8524310542475746
573.8421837796639 755.9363921588811 -0.8534125194686908
574.4084988012992 756.5281767397558 -0.8550731702702592
574.7482794963105 756.791489389212 -0.8563965548942747
575.0873583847788 757.0536242445664 -0.8577194655979952
572.4765727413085 753.0445664379215 -0.8546289446668425
571.6922035676546 751.6811936938946 -0.8542668601391483
572.9251950004307 753.2379181198993 -0.8569262396762838
574.1697093169479 754.8105279680888 -0.859605706588809
572.2489281341815 751.8038228366228 -0.8575358587867186
572.359792168497 751.7365505657266 -0.8585136494219228
574.0504034706546 753.9532381748462 -0.861867096838921
574.1615438193675 753.8858107573325 -0.8628472798642406
577.6945809097984 758.7632902465582 -0.8689818921223491
573.7058199977757 752.7714185184374 -0.8637855361374136
573.8171813115299 752.7045423272855 -0.8647652254003333
577.1142752796311 757.2379635033866 -0.8705554915998164
577.225801616234 757.1702116323404 -0.8715394005583335
577.1095760314491 756.7737360614937 -0.8721788352547151
576.9915528767864 756.374823847335 -0.8728149884660752
575.0559533834123 753.3539651680899 -0.8706969429919695
575.3914800529853 753.6101527737026 -0.8720174043281759
575.2756833599788 753.2154006363821 -0.8726535513690123
575.3874460262139 753.1488531772723 -0.8736347407245262
575.2716887227043 752.7543915007661 -0.8742701147014031
575.3834117549674 752.6878622281486 -0.8752509753947493
575.49451493735 752.6204381306461 -0.8762308991728105
578.3443149653706 756.497293822341 -0.881383726282138
578.6854792735862 756.7601705854162 -0.8827178751438964
577.1952563213349 754.3865876977048 -0.8812576156150271
577.307220451804 754.3199221688037 -0.8822405669365594
577.4188756768712 754.2528102777294 -0.8832230528438458
577.7586972999928 754.5139068219014 -0.8845546086942591
579.7048803196321 757.0849863746282 -0.8883462367741686
579.8165810289548 757.0172198465913 -0.8893313587621492
579.0110055154721 755.63093292957 -0.8889097769790055
579.1222418508105 755.5628138314576 -0.8898930643092058
579.2341047149416 755.4955936266863 -0.8908773185147538
579.8045200926653 756.0870317862616 -0.892566499864472
578.540905989262 754.0444046774886 -0.8914351495301958
580.4883848264609 756.6128860727831 -0.8952446642890095
580.3706094862138 756.2157297800027 -0.8958762086289198
578.8756998419743 753.8425345230191 -0.8943833684696187
578.5325860355905 753.1228842306309 -0.8946643005104988
578.6458252735301 753.0581005479683 -0.8956490327573761
579.899062619601 754.628036822775 -0.8983960976351568
580.0112016206327 754.5612766461232 -0.8993805504078978
579.893482688815 754.1650639365494 -0.9000091070814733
580.0049559938475 754.0974253546291 -0.9009922592205157
579.4324120617397 753.0498694320963 -0.9009146294872608
579.3131612421593 752.652010351234 -0.9015388565716194
579.4261057160965 752.5867892075173 -0.9025231858170173
579.7661083220127 752.8466117804056 -0.9038604872203564
579.6503017904296 752.4539163017079 -0.9044892383050751
579.7632360401578 752.388673354834 -0.905473577200496
580.7884614308691 753.6284808024343 -0.9078794450225018
580.8992982728765 753.5599191214036 -0.9088616504302536
581.7014192572931 754.4797782503223 -0.910922704486552
580.2097696365562 752.1202376044953 -0.9094028975456467
580.3217703697903 752.0536494464855 -0.9103858167595718
580.4334109013462 751.9865447024737 -0.911368179379167
580.5436996797816 751.9175073534652 -0.9123484317653379
581.5697692744294 753.1563106552143 -0.9147634984346382
582.8341077215373 754.7346782378788 -0.9175544112914054
581.7943286342631 753.0232872769295 -0.9167325056142204
582.8272027894191 754.2705406302435 -0.9191627516543122
582.939166876056 754.2032579153266 -0.9201479024939658
584.4401208510907 756.1172298246855 -0.923317769757773
584.3198532219211 755.7182917649993 -0.923939073763222
584.4323385162467 755.6513507524144 -0.9249264763346332
582.003750553602 751.9624307139612 -0.9219077804166886
582.5760060213391 752.5515424735025 -0.9236175030195
581.7755588358651 751.1846639001416 -0.9231608838549619
582.5691982389299 752.0889389839131 -0.9252210221097812
582.450666332652 751.6938101814336 -0.9258403035391325
583.0235647449397 752.2832003581676 -0.9275533138328456
583.5969423065776 752.8729555603161 -0.9292682127490366
583.4782489016105 752.4775914672866 -0.9298872577279553
583.8207275949806 752.738463712692 -0.9312373009868793
584.1634494628428 752.9995226307359 -0.9325882976937692
584.7382383569744 753.5904109327356 -0.934308553101971
586.708468014828 756.1647581736061 -0.9382486112613719
584.0394500786373 752.1442045174196 -0.9348114157808709
583.9243426424713 751.7544760192604 -0.9354342456164204
584.0396693322916 751.6922529535364 -0.9364237472007062
584.8350665654683 752.59589527978 -0.9384978425312624
584.7198162458379 752.206034183844 -0.9391201938132667
585.0624963218725 752.4663893338409 -0.9404734207253114
585.1771428322928 752.4029542237247 -0.9414627144366818
585.5228915363452 752.6674234430529 -0.9428217054094148
585.8624555304833 752.9229585769392 -0.9441713685395143
585.9729038646176 752.8534039142916 -0.9451545269170651
586.7804953539206 753.7723044811056 -0.9472554143436582
586.6597949892143 753.3748522294864 -0.947868541852813
586.5391287758357 752.9776049350018 -0.948481166185104
586.1871436807671 752.252770642808 -0.9487215197252112
586.2997372621245 752.1863289599011 -0.9497078634168474
585.9491071149212 751.463882603408 -0.9499487255415602
586.987662155617 752.7085966156103 -0.9524258397465815
587.0997259480913 752.6412417696496 -0.9534119114154009
587.2121091588967 752.5743372713442 -0.9543985042769236
585.9355062943662 750.5422778835939 -0.9531430224928954
586.7381504312319 751.4521952652478 -0.9552429940919183
586.6183123850875 751.0571299719031 -0.9558533542671057
586.7305406602164 750.9903141603621 -0.9568385996290658
586.8424600372235 750.9230598468749 -0.9578233516095338
586.9547025823599 750.8562605300431 -0.9588086331745558
588.2289123474028 752.4310626251971 -0.9616779670919868
588.340715148717 752.3632453779586 -0.9626639494763936
589.8548371163633 754.2756457467143 -0.9659270766168788
588.5649516695554 752.228497189992 -0.964636955203332
587.9835409379989 751.1822549934527 -0.9644956172841717
590.1915985031999 754.0726684113464 -0.9688923395858637
590.0701486136759 753.6753082308988 -0.9695001493898872
590.1824718086078 753.6078210529029 -0.9704884195501222
590.2944773119934 753.5398842207777 -0.9714761775408078
590.641051723927 753.8026268972316 -0.9728468190429567
590.7531025336741 753.7346718743341 -0.9738349434718998
590.1629675494236 752.6772901012303 -0.9736752330717877
590.2752145623623 752.6098451840512 -0.9746628454648203
590.3877799174718 752.5428469360095 -0.9756509849977419
592.1426611796666 754.7883163541304 -0.9793296877217585
590.8461249765566 752.7371446431869 -0.9780096321991891
590.2615902394216 751.6889769516463 -0.9778543609312464
590.3737463731499 751.621551422531 -0.9788412992430153
594.7183299120239 757.5079134564791 -0.9867824078808667
594.8302522942282 757.4387326917981 -0.9877740462353017
594.7069540750266 757.0388223586701 -0.9883786412261202
594.3519783931308 756.313400170641 -0.9886011820295835
595.8810466400629 758.2360573410322 -0.9919272477290519
595.9937470540387 758.1677254534028 -0.992921039775581
596.3441212958847 758.4332506253268 -0.9943070589761192
593.8617804947119 754.7204730464161 -0.9910155682071036
593.7311584296409 754.3112976930594 -0.9916044317354817
594.0774015963243 754.5716526809824 -0.992981378496097
594.425549838436 754.8345227948266 -0.9943620426672624
594.774911658448 755.0989360152333 -0.9957452855209681
597.7376102778516 759.0288646521843 -1.001460505815544
597.8504798384704 758.960438268663 -1.0024557606684539
595.8231967209457 755.8914940556496 -0.9998987722952393
595.9360257378211 755.8237242118329 -1.000891417174273
596.2864209370498 756.0888639296827 -1.0022789497444364
596.3992922342541 756.0210704725208 -1.0032719602450015
596.5121643772683 755.9532765073222 -1.004264978186768
596.3876722087591 755.5530906005388 -1.0048626073474907
595.552549073858 754.1581756144942 -1.0042750815635486
595.6668554763011 754.0927800447142 -1.0052690987810138
595.7828860714791 754.0297944222867 -1.0062660041678555
595.9006233165559 753.9691924792867 -1.0072657745680544
598.379440724822 757.2109531625168 -1.0122126359502204
598.2564134678341 756.812884058066 -1.0128124721059635
598.3681655339783 756.7431924861797 -1.0138047973255766
597.5365499483971 755.3549856462672 -1.0132167115157813
593.8580049604589 749.9892946113804 -1.007853574093815
593.73807953508 749.5975240183718 -1.0084516094296418
593.8510454018151 749.5311782422638 -1.0094400895652598
594.1969533843516 749.7900955365224 -1.0108199293368898
598.8068401322506 756.0013794459434 -1.0193690394850705
598.208311659454 754.9404423134066 -1.0191661263755805
598.5563716472462 755.2007866099706 -1.0205552057071827
598.6692987451263 755.1329614191284 -1.02154870077635
598.7822293255797 755.0651393961416 -1.022542207737672
598.8951581171062 754.9973131880975 -1.0235357177069204
599.2462336708785 755.2614636230304 -1.0249313054138725
599.5982055751838 755.5267034121199 -1.026328977331218
599.9517464438491 755.7939689225702 -1.0277298735527438
601.0212239439182 757.0583809291264 -1.0303426279012342
601.6132433819251 757.6572105167265 -1.0321492811705184
601.726543287527 757.5891766703219 -1.0331460016995493
601.1208223319901 756.5202523553533 -1.0329236770605235
596.9475840350078 750.4869431225882 -1.0266469606419264
600.8674193609302 755.7167991944166 -1.034100503528407
601.2203519027611 755.9824900629368 -1.035502962586122
601.0942705778757 755.5818600695815 -1.0360915956715075
601.4466356646902 755.8465995669583 -1.0374936681486702
601.7992496305078 756.1115249694342 -1.0388967347839753
601.672914997307 755.7106961508165 -1.0394843902763
602.0256198996163 755.9755861045177 -1.040888188618851
600.9408838063393 754.2436571352466 -1.0398402097277994
601.7725638930252 755.1738580466036 -1.0420611760956149
601.8853470153394 755.1054829452636 -1.0430556727512794
603.1998487937766 756.705147057566 -1.0461046134374214
603.3128350106948 756.6366540759046 -1.0471008822368617
602.7050809566839 755.568214869372 -1.0468632943372995
602.8179465406467 755.4997894167878 -1.0478585193997105
603.1718394459936 755.7656013186592 -1.0492669401430135
603.2847498240554 755.6971555429641 -1.050262535833724
601.2432536183228 752.6425574337909 -1.0475597986122693
601.3574879267178 752.5766532555698 -1.0485551487157068
600.9894551633795 751.8426100399564 -1.0487214969111847
600.6378916814612 751.1316931238471 -1.0489150519881036
602.1704613866625 753.0301319407192 -1.0523507471297648
602.2834155807118 752.9622904756326 -1.0533444805820409
600.7300260158061 750.5880759683853 -1.0514659761295206
600.8423322598053 750.5198825698789 -1.0524566506003907
600.9539732684369 750.4507674319685 -1.053446181957952
601.7773570701705 751.366066061192 -1.0556650360516642
605.4958750424057 756.2842182518361 -1.062889414914821
605.609282826357 756.2161241193585 -1.0638870684582002
605.4813915252521 755.8145241813639 -1.0644671097782066
603.4273768920486 752.7515810509425 -1.0617107819767284
603.5403807200321 752.683714193718 -1.0627049363431524
606.0625934734142 755.9432880359881 -1.067877187125589
604.7278080740134 753.8755104006909 -1.0663616968969905
604.8409758215199 753.8075496166191 -1.0673572772447528
604.9544740187423 753.7400432195317 -1.0683534378233048
601.9528699673953 749.3742428254318 -1.0639327857949752
602.0658727366668 749.3070694002826 -1.064924461542887
602.4160800616232 749.5670392081283 -1.0663291703376103
603.9639284138245 751.4782090696459 -1.0698211977496044
604.0768586546427 751.4103828836448 -1.0708147172880444
604.189457598572 751.3420984325943 -1.071807664778703
604.0622650999987 750.9434134098046 -1.072381968474133
603.6980093457114 750.2183211267204 -1.0725415565514709
603.8136122007121 750.1544034837123 -1.0735389364602952
610.4595059491389 759.0819094265133 -1.0859603020841746
604.7567819912074 751.0066143414928 -1.0767800594458095
604.63258273464 750.6124316549815 -1.0773582414785778
606.6673000206368 753.1888568043121 -1.0817201835322976
606.7805186445581 753.1208618937062 -1.0827162241969859
606.4113132230866 752.3894124520913 -1.082865521201768
606.5244548337532 752.3214655802308 -1.083860877971631
606.637262867182 752.2530584962504 -1.0848556544532926
606.7517496148951 752.18695695997 -1.0858533884644999
607.1061799183933 752.4505220783855 -1.0872733947489337
607.7015441672681 753.0448798887846 -1.0891182527808496
607.3332380837537 752.3155197067716 -1.0892660899622797
608.8981535589322 754.2407232072441 -1.092821712635157
606.8438312991917 751.1970591140052 -1.0899946215256477
606.9545111121614 751.1258741600313 -1.090985131621835
607.0629344976813 751.051593283435 -1.091971655488237
606.9388811200989 750.6584328678141 -1.092547164991288
610.6828040067429 755.5697466534746 -1.099965036614094
609.3364115275067 753.4997856821248 -1.098380060755403
609.4501438329617 753.4321545738999 -1.0993782242803718
607.1456249180252 750.0506252774635 -1.0960898283978509
609.1901675463711 752.6290709628337 -1.1005099754281105
609.303815207872 752.5614763238516 -1.1015074454978162
609.417135298312 752.4934312181475 -1.102504340527048
610.5035029534248 753.7575563292188 -1.105230554147738
610.6173207941354 753.6898738557902 -1.1062294701544033
609.5142579759477 751.9569811022809 -1.1050629265806151
609.6275423791069 751.8889590998706 -1.1060595016957109
609.7404941591558 751.8204804655675 -1.107055490113396
608.8929288702088 750.4385388442281 -1.1063388972748953
612.4105795812567 755.0250308195168 -1.1134082378708854
612.2765643126593 754.6182013662627 -1.1139661516635329
613.1219343807521 755.5498431453614 -1.1162731157549501
613.2360433584282 755.4819912478802 -1.1172745737130754
612.1279332011364 753.7447865449835 -1.1160897992184573
612.7288274461754 754.3420372347892 -1.1179611591202274
615.0522090544737 757.2904942531701 -1.1229187039905355
615.1665718703752 757.222505465015 -1.1239223396476063
612.8254283272885 753.8038667459455 -1.1205224034596881
612.9390480973618 753.7356525691735 -1.1215218960503535
613.2974550539755 754.0013018472454 -1.1229609461829
613.4131141203461 753.9357861299834 -1.123964396235806
614.0147160671834 754.532731461989 -1.125841555637976
614.3759653241209 754.8017761609373 -1.1272874246303672
614.4915579852034 754.7359254496732 -1.1282916266324605
615.0930201895208 755.331966483761 -1.1301710789281856
614.4755071874432 754.2674880869631 -1.1298544089768257
614.0931151613745 753.5236299837204 -1.1299601512501454
613.4722861659253 752.4554995365975 -1.129634423787536
615.3024736329462 754.7236777835063 -1.1337334950746367
615.1700886554685 754.3203168046674 -1.1342898990762933
615.2842132066032 754.2524538608264 -1.135291500077983
612.461186829289 750.1899526108797 -1.1309785921009166
612.5744909359792 750.1219135423038 -1.1319753592093775
612.4477672769709 749.7275801004746 -1.132537273784294
614.7570902680759 752.6441684943727 -1.1375148193134805
614.8707232573438 752.5759437442686 -1.1385144375894924
615.2295095689159 752.8407417203438 -1.1399590473239982
615.3431866763322 752.7724949308144 -1.1409590378460166
615.4568646411508 752.7042476265378 -1.141959035910304
614.5888266910224 751.3033471791273 -1.1411737319930353
614.9474682033582 751.5678635712693 -1.1426183814458568
614.8188977347776 751.1711569575 -1.1431764605217722
615.6655227966914 752.0974670904477 -1.1455107823892945
615.7804972944562 752.031048487477 -1.1465128934293602
615.8954876360406 751.9646488373343 -1.1475150423879654
616.0151683815642 751.9046047316291 -1.1485257622728113
617.1060691010424 753.1607829910558 -1.15131047684622
617.4654943217703 753.4252500507746 -1.1527605192300712
617.5796818287923 753.3573613395745 -1.1537626311666713
619.1775015900655 755.2987138251865 -1.1574797364627898
619.0431260518067 754.8938047490144 -1.1580284072441032
617.1862980880433 752.1574815875668 -1.155420580978614
617.300326168232 752.0896043810155 -1.1564215906153663
617.169552568309 751.6905095148765 -1.1569735159310426
620.2441656513521 755.6274234206275 -1.1634088464919614
618.8704464846238 753.5467068813366 -1.1616802942049844
618.9847257091795 753.4787704165976 -1.1626831869054968
619.0986664321877 753.4103744951711 -1.1636854638444447
618.4732237637423 752.3427719811606 -1.1633271417602487
618.8321106517224 752.6055510954214 -1.1647796167694082
619.1936574001132 752.871765382031 -1.166237554462782
619.5589832645156 753.1429238740285 -1.1677030270721502
624.4071347968759 759.4663183766173 -1.1774386598955857
624.2726710438351 759.0611062043802 -1.1779878237491062
624.386648285055 758.9913204395326 -1.1789952975476012
624.2518564565785 758.5859000686012 -1.1795430194973164
620.1248674399029 752.7957264199979 -1.1727075837479788
619.2588204026497 751.4057596546337 -1.1718965627520106
619.3714195618602 751.3358474504067 -1.1728953134075937
619.7228888935509 751.5879089447932 -1.174336610569469
619.8367178852267 751.519576425653 -1.1753379177378065
621.1904226628544 753.1216920279387 -1.1786390925885257
621.3051462893178 753.0541680692925 -1.179643473366582
621.418840381929 752.985255586784 -1.1806459496592652
621.5328794512329 752.9168060924894 -1.1816490722308117
619.6635631635107 750.1787502292731 -1.178964287771862
623.7552464425623 755.4635917678023 -1.1873658293277458
619.4058185471214 749.3894869235312 -1.1800616358778484
620.7473807638322 750.9728976958088 -1.1833486472973505
621.6052616822269 751.9051051544933 -1.1857368791066278
621.7192230833289 751.8366986190189 -1.1867393315295658
621.5847981748515 751.4344329429503 -1.1872782518970553
621.7004335823856 751.3683510760652 -1.1882835623577535
623.057099536324 752.9695583790277 -1.1916076869864014
622.9220134805627 752.5663205035363 -1.1921456713072303
625.0354864354168 755.1826980365634 -1.1968894843156477
623.8986295055066 753.4341578352012 -1.19555374699695
624.0124986813095 753.3651438406898 -1.1965577506224463
624.376629095624 753.6319527937112 -1.1980307680735223
623.7536138281095 752.5742674806083 -1.1976532575849888
623.8650137191653 752.5020905516355 -1.1986520968504806
623.9806968199774 752.4356572395021 -1.1996589774437894
624.0987836873406 752.3724438492261 -1.2006703831287382
624.2158624234254 752.3078750772079 -1.201679908677022
625.8141012649311 754.2280643622771 -1.205475234865446
625.6787941751325 753.8249035614524 -1.2060114730625742
625.793142913797 753.7562810752564 -1.2070172736712834
625.1585864255301 752.6848272966537 -1.2066120083599685
625.2738462986696 752.6176567277876 -1.207618699326133
625.389816412119 752.5514344396304 -1.208626738400767
625.5030448129052 752.4815406443616 -1.209629612263825
625.8648879699763 752.744243496461 -1.2111020387889084
626.980467824306 754.0149040242259 -1.2139994222778796
626.3430703231363 752.940895764711 -1.213584349350242
627.2096692731806 753.877992915963 -1.2160131884247107
625.577273302453 751.4745899886765 -1.2137127783365145
625.6872718072781 751.4005283068246 -1.2147090064067925
625.5508014093027 750.9972046644834 -1.215238080943493
625.6652274329197 750.9291355298537 -1.2162424237457685
625.777232135544 750.8578313509877 -1.2172421784975427
626.1385753475292 751.1193888737395 -1.2187153591685274
626.253410964321 751.0517842353534 -1.219720773022516
627.1190852028374 751.9860622247219 -1.2221535045700307
626.9827521030983 751.5831489548917 -1.2226820304190937
626.8465183686071 751.1805233569968 -1.2232101923994492
625.9695075808054 749.7902890493015 -1.2223271399935243
627.8278111288234 752.0471286137226 -1.2266537922553198
628.193610826639 752.3136812673941 -1.2281388355388572
627.8047812912353 751.5745482924472 -1.2281848821413632
627.6688867974945 751.1726793658788 -1.2287126054544615
627.7824499727778 751.1032060284786 -1.2297162092701228
631.9395132912337 756.4178179758586 -1.2384468722370343
632.0544283134316 756.3488798487156 -1.239457567585589
630.9001157770679 754.5907034900713 -1.2380399751378945
631.0148226694806 754.521880900313 -1.2390488731743403
631.1295304344469 754.4530577870348 -1.2400577788853866
631.2445894677408 754.3847001701653 -1.2410673638184448
632.1196926890007 755.3269486393656 -1.2435344546680653
633.5071915440852 756.949879223795 -1.2469864046113912
633.8776795968174 757.2203602054968 -1.248488656406039
633.7369563350745 756.8114156557059 -1.249009454258271
633.0907973568603 755.7311953645576 -1.2485581980092775
633.2053119598528 755.6617078992779 -1.24956818577499
633.3186562454396 755.5906650500107 -1.2505759266004475
633.6878843468483 755.859305121939 -1.252076352454992
633.0394477012668 754.7771602820221 -1.251616793505093
633.4080244080135 755.0449327794447 -1.253115975325386
633.2687809454727 754.6388922922175 -1.2536362732806765
633.637794510555 754.9070833124773 -1.2551368715161857
634.262005627054 755.5134911296748 -1.257130812006551
634.1220114485827 755.1065290227901 -1.257649397382977
632.9660101243533 753.3531908276975 -1.2562033183185122
632.8267855330633 752.9478764550838 -1.2567211538387824
633.7029716948501 753.8878303388851 -1.2592036322494096
636.1156459713985 756.862216869527 -1.2646631733467188
634.4420329555411 754.4246142105111 -1.2622102806330417
636.858838637142 757.4028849285637 -1.2676834799895573
636.9741127854587 757.3337464017437 -1.268697280294191
636.8331523483832 756.9255695914826 -1.2692137628635578
636.9483860389464 756.8564534479303 -1.2702272140636524
632.7306707889995 751.0568788205929 -1.2628213269813386
635.3873505884059 754.349453107232 -1.2687710943655475
636.780433191939 755.9700895751928 -1.2722683917943414
636.8955853515372 755.9010176619395 -1.273281142599842
635.7321809149734 754.1425948859077 -1.2718039042378564
636.3592506483262 754.7501500048531 -1.273812785082157
636.7288671748223 755.0173748187748 -1.27532084100244
636.3328070628932 754.273466063896 -1.2753357762211408
636.4477781540422 754.2044624798278 -1.2763470781225124
636.0564507595191 753.4672694527316 -1.2763695821593046
636.4215736825843 753.7284795650535 -1.2778691623902318
636.5357714743388 753.6585298461708 -1.2788786887542756
636.1427109569662 752.9195935422599 -1.2788958689889682
637.0219376370997 753.8585018414167 -1.2814023146726186
636.8809547816866 753.4520874584044 -1.2819123662595757
636.9959073534241 753.3831268000374 -1.2829233918801037
637.11086080127 753.3141656160627 -1.283934425206155
638.5078130774729 754.9339623471795 -1.28746047584184
636.0648840735427 751.4959265572702 -1.2834520963854743
636.4335008858598 751.7613439436809 -1.2849599394087932
636.5472498431222 751.6911047392143 -1.2859675097110426
636.4105383566447 751.2912443942221 -1.286482635252355
636.5260016492548 751.2233357025674 -1.2874933112291842
638.9417314923919 754.1812925992817 -1.2930317524914017
639.3143398685908 754.4508539905316 -1.2945513968037972
641.7527510325928 757.4364315016859 -1.300142379207557
637.7483783411526 751.9514042924806 -1.2930355720841362
637.8639523061352 751.8833972227364 -1.2940473354448727
637.9777889278932 751.8131053430377 -1.2950556770722415
638.093373341411 751.7451083306012 -1.2960674741413527
637.9525277381028 751.3403409443167 -1.2965725690861518
637.812680276227 750.9370391190216 -1.297079084958682
636.400609946899 748.8638670243936 -1.2950683410426223
636.2581844703878 748.4578799660501 -1.2955672660961
636.371084754783 748.3870538686185 -1.2965712786741506
643.1713378875244 757.0884573031166 -1.3108260926538264
640.9575756404056 753.9642633535628 -1.3072246487130883
641.0714158904212 753.8933342486212 -1.3082352857285855
641.443222463613 754.1605586589201 -1.3097579220910802
642.0749164195759 754.7682177173269 -1.3117972156282462
641.931726244242 754.3602786361821 -1.3122980076419708
641.0148850277205 752.9390667722834 -1.3112602185651099
641.1296800625621 752.8695401894134 -1.3122722125731912
640.7298590436078 752.1262151087926 -1.312260031304163
640.5903270566789 751.7239247847946 -1.312765042022363
640.7039135019769 751.6530466588708 -1.3137738077734866
640.8189356140443 751.5840461677335 -1.3147854382937112
640.9343298051016 751.5155307196869 -1.315797816902034
641.0497267443781 751.4470169663178 -1.3168102077647745
642.4522767896261 753.0614419452868 -1.3203926687069725
642.56821078201 752.9932344278049 -1.3214075431949937
642.9428031483011 753.2630606883005 -1.3229394507426377
643.0588022589637 753.1948553239107 -1.323954751044596
643.1737369964546 753.1252574811359 -1.3249679290331073
643.2890261768025 753.056121061763 -1.3259818218935493
643.1465778405616 752.6504641558091 -1.3264794180230979
643.0068773176926 752.2485491466682 -1.3269819690892177
643.1201562048402 752.1769399412376 -1.3279912932007392
642.97533904095 751.7685785886731 -1.3284827595379625
644.3821771492181 753.3844293970426 -1.332088683823315
643.2024352827759 751.6262166191549 -1.3305019397279239
644.6129249182519 753.2460419021498 -1.3341180059488806
644.4695304344003 752.839530981423 -1.334612347561972
645.3629251927833 753.7843560695184 -1.3371920202930596
644.4401135551451 752.3623133995499 -1.3361174477042255
644.5550579535271 752.2927099364003 -1.3371307100371723
644.1538151847569 751.5508608896603 -1.3371038033035916
644.527859544344 751.8187650682875 -1.3386389136002208
644.9036384098007 752.088768644021 -1.3401780876012026
645.0205129578158 752.0216701199563 -1.3411952705704948
645.1358236426468 751.9525341992298 -1.3422093048076817
645.2527964377085 751.8855586892709 -1.3432267033474545
645.8817366431196 752.4843992748904 -1.34527909664979
645.2283798360069 751.4156750909056 -1.3447389498163602
645.3456475069944 751.3491529291342 -1.3457566954769504
645.4571707573677 751.2751624131262 -1.3467628200292552
645.5683122335487 751.2006764429913 -1.3477681690609415
645.4221901550546 750.7920061432478 -1.3482520498308759
645.7941378783056 751.0563078348121 -1.34978604314324
645.1491162892503 750.0000245464296 -1.3492570407751145
645.2621176375424 749.928183202124 -1.3502653447306443
645.37596627792 749.857441088752 -1.3512753711140704
645.9954221094395 750.4427186661206 -1.3533129695915704
645.8549490546302 750.0419190197331 -1.353806402520604
645.9712305578461 749.9742536687968 -1.354821657945024
646.3432164742551 750.2381288992249 -1.3563574255243225
646.2023835215613 749.8370881603905 -1.3568493219514153
646.8340259169461 750.4373159081547 -1.358914759359493
647.4673932227483 751.039466053829 -1.360984827466325
647.3262697712421 750.6380409712243 -1.3614761599613985
647.4449542676902 750.5732410363889 -1.3624971988795096
650.6919255555938 754.5588838964135 -1.3699062246465132
650.8077512136757 754.4894355153591 -1.3709248007173187
651.4491286813826 755.1001440736966 -1.373017687580898
651.829044567968 755.3722353941628 -1.3745769602117548
652.2081556597817 755.6431253950229 -1.3761351571869227
652.5879046110856 755.9146806300116 -1.3776952292868714
652.4401610349792 755.5040391566138 -1.3781753416198512
653.8768757939113 757.1417500733079 -1.3819022378343107
650.3058027337864 752.3067076520458 -1.3753631658635186
650.6832777723864 752.575711131631 -1.3769171957831645
649.7642502036301 751.1697607143839 -1.3758104565671943
651.177454618039 752.7764588592102 -1.3794913834051385
650.2438053312211 751.3521671015939 -1.378352681593526
651.9345836048565 753.316324774217 -1.3826073223111734
650.2249836626349 750.8910733700982 -1.3798708438301333
650.0919453465165 750.5011218840064 -1.3803751037090137
650.710699408824 751.0811166156196 -1.3824268599767038
650.8329549331326 751.0204825803655 -1.3834568226635042
651.7271782566563 751.955206229627 -1.3860780152323287
651.8477065082175 751.8921034617027 -1.3871052787722533
653.0107966488118 753.172636131698 -1.3902837483975645
653.1300124885853 753.107521728833 -1.3913094452799442
654.2966884367564 754.3917306670959 -1.3944986822336887
654.4150198135028 754.3251570623545 -1.395523692272775
655.0603978786257 754.9372017048796 -1.3976384487140763
655.704322924279 755.5470583083426 -1.3997513312311298
655.8201138766941 755.4768920157637 -1.400772235090244
654.887900207173 754.0582592812972 -1.399622919875867
656.5836825070934 756.0209025247904 -1.4039162698985024
656.6999588243185 755.9511975816977 -1.4049387604322305
656.5508246370669 755.5402251825735 -1.4054107950586285
656.6670627522602 755.4705468017115 -1.4064329366092352
654.1385267046508 752.001781819789 -1.4019642031934154
657.1647225086799 755.6719220399436 -1.409028073140007
654.3735741039304 751.8672937046975 -1.4040082492932129
654.4914230577385 751.8004633374674 -1.4050309630407583
654.8680992641342 752.0659689378817 -1.4065921425274155
654.9832064825682 751.9955362393607 -1.407609444351749
655.0957349829599 751.9217927251111 -1.4086213804125691
655.2112296322198 751.8518554594931 -1.4096394954890457
654.8067343535408 751.1148583330225 -1.4095736435066328
654.9189637194054 751.0408847082233 -1.4105844084209593
655.030585950482 750.9661330281938 -1.4115939048663222
654.8849206605655 750.5615552279788 -1.412066239726073
654.7448785437517 750.1643377579945 -1.412549773582441
654.8609918179892 750.0954939651256 -1.413568109387768
567.9217902338929 752.154336801322 1.0406510984740294
568.2465230715551 752.3751986470231 1.0400081810610118
567.1545238250794 750.7267128902279 1.0374845115650828
567.4772145200544 750.9450187067765 1.0368395997949733
572.3270108850633 757.1334348030944 1.04218743400412
571.4583566815609 755.7793383399342 1.039958659297838
571.070699493714 755.0598539879635 1.038368146918117
570.4563968380477 754.041960870921 1.0364800932194953
570.768615921075 754.2452557034113 1.035815103892844
570.3879230003176 753.5356531757029 1.0342374197521167
570.4716686961605 753.4379883498382 1.0332717434739607
570.7933991862336 753.6536762143209 1.032618568301416
571.1210060688213 753.8769588115988 1.0319723714788438
571.2091048980859 753.7848829797106 1.0310116729466472
571.058582835148 753.3788305318444 1.0297387431051561
570.9124984529847 752.9787568944133 1.0284723426922824
571.2407316000886 753.2026414931601 1.0278258167249419
571.3337786935293 753.1171362123127 1.0268719014353564
573.0871695198389 755.2143115951001 1.0280802001956886
573.1757896093382 755.1224844112393 1.0271179219379292
572.3085611484371 753.774668643614 1.024913798579405
572.1610453597057 753.3729104854909 1.0236465542171231
572.2494568349974 753.2811597734692 1.0226858185556011
572.3375415211099 753.1889784643929 1.0217246521464176
572.4246345956246 753.0954940645775 1.02076219686262
572.5117349243154 753.0020184844707 1.019799747318757
573.3163286064212 753.8500482161262 1.0197628297609072
572.9253595085348 753.1291698082149 1.018183315413694
572.537578849621 752.412757144719 1.016609371910988
574.0619992127735 754.2041401594383 1.0174947168808899
572.4746834860881 751.9151005665834 1.0143807795412272
572.5655531601399 751.8267017898696 1.0134238679402188
572.6552587443505 751.7367745743292 1.0124654500478414
572.7424297391856 751.6435244193913 1.0115037781033607
576.9189837612721 756.9067018358047 1.015766927382174
577.2501824520537 757.1318001919823 1.01511037508169
577.57887953948 757.3534779865302 1.0144498823603385
576.7006142637014 755.9951618806347 1.0122521228566939
576.0645829672867 754.954417835703 1.010365328599221
575.9111499078211 754.5455116179158 1.009093641307743
576.48289371778 755.0853205153535 1.0087425371581276
575.1262072107351 753.1029156456427 1.0059467909744626
575.6959558873727 753.6401118496002 1.0055931408732022
575.7846488365719 753.5482006383035 1.0046300273394309
575.6321377855862 753.1410651587327 1.0033624307798732
574.9990774671363 752.1061969977605 1.0014896977386911
574.8477020823362 751.7009699762053 1.0002257296091557
574.9355884151079 751.6083553945539 0.9992634124450319
574.067086795643 750.2669957066646 0.9970996868159432
578.0083773718965 755.2048641671554 1.000973522062452
578.0979505626087 755.1135907292462 1.000008868016664
578.1865439444312 755.0210369218894 0.9990429777409986
576.3414849837325 752.4060234577178 0.9956598851940726
576.4301530586991 752.3141359821742 0.9946970312101371
576.2774733671605 751.907550390474 0.9934332064699447
576.3684238387914 751.8187065603304 0.9924735483423888
577.9040895682019 753.6127899127305 0.9933110329818078
577.9929281468276 753.5207618273334 0.9923465141517909
577.8398021733635 753.1135172317857 0.9910817340988842
577.6875228242444 752.7075166212358 0.9898187343329141
578.017463611666 752.9295757718518 0.989153376270167
577.86478151005 752.523190040451 0.9878905986690256
581.8461299594217 757.4976003312272 0.9917332203760907
581.9348467221234 757.4043993365432 0.9907633037928463
581.5348593712692 756.6754115711766 0.9891914235055879
581.6233522099047 756.5820609473425 0.9882219640630865
580.2496403253003 754.5872979933052 0.9854558978561272
580.0957417889258 754.1792481545091 0.9841911999457125
580.4270246166187 754.4019706951623 0.9835218948233546
578.8203935502003 752.106250780565 0.9804795995078166
579.6339897043159 752.9558744227082 0.9804014299035657
579.7228921711784 752.8637648936531 0.9794361384905983
579.8124870566968 752.7725530203033 0.9784716836389862
581.1161237450387 754.2575444884968 0.9789859626018824
580.9615331239952 753.8490145181585 0.977722586168511
582.5155245997723 755.6578944529863 0.9785358556179631
582.6050772991799 755.5659046093535 0.9775676082326754
582.6946334817218 755.4739175560625 0.9765993561310324
583.0283101550755 755.6985146011058 0.9759265860669188
581.8944763177673 754.0202675522943 0.9734789749521724
582.227749985409 754.2444829160361 0.9728064462382235
582.3165483853521 754.1517228353471 0.9718383616681194
580.9536570736174 752.1780534564036 0.9691219199261241
581.0419282811897 752.0850337727239 0.9681553910274374
583.563188464421 755.1429313423329 0.9701116541316992
583.6524450174004 755.0504716391705 0.9691426044115588
581.3107037300441 751.8110965162366 0.9652605167171942
581.6411667124488 752.0315161376942 0.9645838061483119
582.6963835631093 753.1895578629455 0.9647726197304678
584.0098278541257 754.6810788566954 0.9652667520729779
582.6347041817282 752.6946954142653 0.9625517958226624
584.4337224878274 754.8134280166435 0.9636207420209075
584.0320463161443 754.0862388050916 0.962067451230098
583.8761846660947 753.6770370452753 0.9608075879711464
583.2354663778372 752.6414689564137 0.9589733392481321
584.5447410659542 754.1254423587825 0.9594513528278412
585.6178219216071 755.3036403929037 0.9596462161183013
585.4604731299145 754.8924396530424 0.9583841886379219
585.5498362722457 754.7998822377289 0.9574140473976058
583.4385803174308 751.8670076149261 0.9538502476370354
584.7455928912209 753.3463415530632 0.9543166985885136
584.8351652953988 753.2543366821114 0.9533482651252143
585.1696202270047 753.4781827352175 0.9526673311170839
585.0133075718572 753.0690289825527 0.9514101959198911
584.6187944491412 752.3529221438018 0.9498748509260508
586.4224077494521 754.4703428882547 0.9509117465967165
587.5007050089271 755.6520864624738 0.9510962703005816
587.5907318429564 755.5600097768001 0.9501249667877687
587.6792300918479 755.4659623509345 0.9491518730045527
588.7583080974417 756.6475532480996 0.9493313142003217
588.601695788849 756.237640527018 0.9480719003749982
588.6889890877134 756.1418220403126 0.9470962698612766
588.0370121588438 755.094639434358 0.9452638409300675
588.1250082255149 754.9999401193289 0.9442901359900588
587.7214934410821 754.2730031033396 0.9427482588887983
586.8300208012422 752.9188269351436 0.940644532288502
588.1468910398821 754.404555856248 0.9410898653715662
587.9891726920526 753.9940732266514 0.9398335846088344
588.3255589503034 754.2187311257998 0.9391462314950445
589.6544039624654 755.7184128875965 0.9395979036135031
588.2579229303191 753.7165065875104 0.9369200739222379
588.8412616458969 754.2580997294704 0.9365144486046688
589.178859996839 754.4838769893871 0.9358262216704247
587.7841250041859 752.4857196954962 0.9331581857057927
588.1207751470228 752.7104919440455 0.9324699732361523
590.4405857936318 755.4797414780796 0.9340406554168794
590.5302868737078 755.3868553120446 0.9330669554810243
590.6199886178391 755.2939684583755 0.9320932483367415
590.7096910260332 755.2010809170662 0.9311195339840879
589.8062155298721 753.8349838002842 0.9290201338392308
590.3915892562375 754.3776651593818 0.9286089490217933
590.2332081668677 753.9670296648237 0.9273555213688951
590.5718805396795 754.193303489858 0.926663958000745
590.4131154101412 753.7823165658016 0.9254108239156835
590.5027258100914 753.6895179179245 0.9244380752936081
590.5923368727556 753.5967185837545 0.9234653194776001
589.1937753646936 751.5991692311957 0.9208214673891462
592.2647579240769 755.321864718781 0.9231942795314012
