517.4751105070085 98.58192432134408 -0.12889159757537527
517.6314822392661 98.62071022754779 -0.12894767873234514
517.7878177756471 98.65995817541932 -0.12900033624606522
518.0582480784881 98.21719935011484 -0.13278905171739552
518.176846446728 98.41659991104015 -0.13160072958072533
518.2953046855088 98.61689584866212 -0.13040562206992945
518.4520293571506 98.65574019055279 -0.13046204056342958
518.6087944927409 98.69472351675307 -0.13051753985564574
518.7656052084983 98.73382439963905 -0.13057228612808558
518.9037288528159 98.85222232722688 -0.13001257632680563
519.1552987577895 98.49142211900111 -0.13316718976392394
519.3694207022563 98.2892279572228 -0.13509264541897892
519.3367233311976 99.13054769664976 -0.1289301803511762
519.4746027003484 99.25121017921099 -0.12835354652855813
519.6314602279112 99.2919719831389 -0.1283963669034165
519.7514120935841 99.4890191218654 -0.1272280022936343
519.9459297782669 99.37124178404446 -0.12849995320760854
520.1033472025015 99.4105726850969 -0.12855434117523146
520.2608345573699 99.44992027210415 -0.1286087589974727
520.4374385426688 99.40879465457913 -0.1292870750510815
520.652251293162 99.20652060029573 -0.1312145976736474
520.8290488548089 99.16521240253016 -0.13189465288894553
521.0058482154518 99.12421296852744 -0.1325724762160121
521.1637125747359 99.16354153606389 -0.13262784408163952
521.1690370868089 99.84774016011662 -0.12768502099885382
521.3649683218756 99.72683430290405 -0.1289826713284583
521.5229892344772 99.76643222702737 -0.12903642609956023
521.700216194125 99.72519414028534 -0.1297168988538715
521.8775484617087 99.6838287004654 -0.13039852067896618
522.0549611896499 99.64244111062361 -0.13108047625883046
522.1941041439882 99.76306019872492 -0.13050687927506033
522.2954030165482 100.04387758000031 -0.12869174150574736
522.4727209899768 100.00383486270556 -0.1293637546718287
522.6311815431288 100.0437777904994 -0.1294159585481225
522.7518088869572 100.24386706832881 -0.1282270211870582
523.1589870391846 99.23372246161246 -0.1364188357833882
523.336914953204 99.19239208925859 -0.13710148711021475
523.3616418845113 99.7985565618147 -0.1327655168106503
523.386866202493 100.4029126120729 -0.12844371304038305
523.5457377297946 100.44301183650093 -0.12849567068656143
523.8577180909906 99.83668206853571 -0.13355833354921742
524.0359994871394 99.79544097884994 -0.13424110001852796
524.0801555308578 100.32105442825141 -0.13053026473431828
524.2585119217629 100.2801259043781 -0.1312109294980246
524.4178124476085 100.32000525035272 -0.13126540364191897
524.5965623262834 100.27805505162725 -0.13195431421257808
524.7750488962956 100.23753829684645 -0.13263227784210585
525.0498441893028 99.7905857180625 -0.13646076551128772
525.2093869009076 99.83072786413808 -0.1365138585468344
525.4075332525642 99.70815393319667 -0.13782836029315604
525.54827758337 99.82832623591868 -0.13726144894110348
525.7081173219848 99.86817195111789 -0.13731732843581312
525.8679461289775 99.90838300549102 -0.13737053894828932
525.8354858505139 100.76093913980917 -0.13112722178220793
526.0339646727598 100.63855872438947 -0.13244103864582257
526.3671929464039 99.94748964302997 -0.1381630829435494
526.2582052721673 101.12410608235858 -0.1294083468729923
526.4183333340197 101.16463019747344 -0.12945993530422584
526.5786126911439 101.20483585674756 -0.12951415567283675
526.8351241387038 100.83903078291928 -0.13271565687131215
526.995597288734 100.8790681531508 -0.13277151338553494
527.1561163376824 100.91923276845165 -0.13282654741300348
527.3167328671881 100.95930705236293 -0.13288244557111284
527.4580915356844 101.08101053361247 -0.13230577062483917
527.5610528679507 101.36514447177899 -0.13047019966666085
527.7217612749005 101.40578898194414 -0.13052216677147044
527.8826469216111 101.44600728690415 -0.1305776019310656
528.0627966287826 101.4052208324544 -0.13126110198561491
528.2238573772632 101.44534642482361 -0.13131758576685115
528.4234972608807 101.3229321446525 -0.13263414955866892
528.5847646248461 101.36283460086688 -0.1326926942629143
528.5529324054044 102.21819951123702 -0.1264303919589338
528.7720960793675 102.01433629994439 -0.1283787965359693
528.9333626907721 102.05519991032443 -0.12843037988244532
529.0369547191783 102.33983592580161 -0.12659253231930734
529.1984839191878 102.38023368174197 -0.12664805472076068
529.3600328312176 102.4208724196534 -0.12670187464010496
529.5217634029461 102.46106879402097 -0.12675928914057977
529.7026926407666 102.42055767136814 -0.12744247514939389
529.864465988925 102.4612246570176 -0.12749657411376347
530.0454839693821 102.42099398890895 -0.12817792055744803
530.2268230515643 102.37973680144506 -0.1288673919187886
530.3887429094543 102.42076461703445 -0.1289191937875671
530.6283307172749 102.1343385296384 -0.13150944519725272
530.8097876362983 102.09357493824496 -0.1321955963200594
530.9528096408184 102.21533964671401 -0.1316220619791011
531.19260907156 101.92902661102127 -0.13421195075835612
531.3549306956041 101.97000330174338 -0.13426498849992186
531.4398500476057 102.33793029921293 -0.13178379570121024
531.5830044534616 102.4604341640707 -0.1312051943965571
531.7455490179007 102.50144224068418 -0.1312584852369696
531.7339668167332 103.27751413562228 -0.12561397747731462
532.0709642503945 102.58306472973187 -0.1313686200961115
532.2337818055671 102.62390370679367 -0.13142372359664023
532.2412837096457 103.32039077789733 -0.12639661120493884
532.4236118360564 103.27955322601865 -0.12708517504796646
532.5285581670182 103.5655290525028 -0.1252405439724953
532.7885958899406 103.1974911575538 -0.12846581105895893
532.8547049680685 103.64796874768396 -0.12534633772031611
533.0178627493385 103.6893261205501 -0.12539842058419026
533.1811753061684 103.7303598302577 -0.1254531805909096
533.3640696038548 103.68911460483638 -0.12614591632279826
533.5276157318239 103.72982400497253 -0.1262035279319207
533.7105405606017 103.68911497739691 -0.12689244682923118
533.8935713904632 103.64829248144198 -0.12758241575141938
534.057461053536 103.68854680435544 -0.12764406279114837
534.2402731422815 103.64931329260804 -0.12832205453088363
534.4040674401542 103.69063309292001 -0.12837578094655555
534.5680430317808 103.73151923499377 -0.12843303811962414
534.7320673093715 103.77253130205058 -0.12848948836989393
534.8960576208759 103.81401812447993 -0.1285424277212428
535.0601212313886 103.85552748129382 -0.12859536183634646
535.2050866312056 103.97791833849013 -0.12802148093044252
535.3884956728386 103.93849945977091 -0.12870210115721648
535.5528355775261 103.97983991909743 -0.1287568535872765
535.717276324607 104.02108766284542 -0.12881249465544897
535.8238471845837 104.3067221765017 -0.12697383536902862
536.0463023601673 104.10397219373493 -0.12892127116117535
536.1914549917982 104.22755899118687 -0.12833913385253481
536.2977778953637 104.51522123696904 -0.12648525745186134
536.4625174681239 104.5568678760536 -0.12653865398402786
536.6273863545307 104.59830310250922 -0.12659385998847483
536.7923866246125 104.63951842970225 -0.12665094137730648
536.9768571571133 104.59896880799693 -0.12734203650683185
537.1612295768384 104.55917098574251 -0.12802747644025203
537.326381473265 104.60075417836234 -0.12808222081417853
537.491581887742 104.64246779410114 -0.12813612533244623
537.6374349703453 104.7660904937996 -0.12755523730101004
537.7832496692068 104.89020690974678 -0.1269706915558686
538.1250713323634 104.18826991352435 -0.13278994662260857
538.2904970843608 104.23038819783801 -0.1328414064574872
538.4365051576699 104.35470594729969 -0.13225581951201093
538.6413724232519 104.23121619082679 -0.13359143417170571
538.7483295571868 104.52083350336349 -0.13172476765612373
538.9337987418235 104.47979787282267 -0.13242153375847465
538.8643098542641 105.51389225197133 -0.12478390987809007
538.9912001369448 105.72045178579916 -0.12356161588013492
539.2158890537564 105.51508413402037 -0.12553281925715964
539.3428863632182 105.72186222822762 -0.12430917326724966
539.8231426868498 104.43991831044892 -0.13462655191710837
539.8716473770882 104.97824428257951 -0.1308330349370408
540.0380193246235 105.02007610745653 -0.13088860777662603
540.2437249665501 104.89645846599646 -0.132226954884743
540.351278474823 105.18688033499421 -0.13035574755446078
540.5179265165132 105.22856302709087 -0.1304129951613504
540.6845973126613 105.27048906257721 -0.13046852974247258
540.8513442236508 105.31243376916821 -0.13052409312882673
541.0181938948684 105.35428508346628 -0.13058055418554204
541.2046979556475 105.31364565808741 -0.13127668118301017
541.2343869292231 105.93421062382644 -0.12684712823033806
541.5190666284402 105.48051515705902 -0.13074573899251618
541.6861678431535 105.52266741086865 -0.13080056293563302
541.8140446264938 105.73045184747383 -0.1295715249832483
542.0010236930907 105.68951907336927 -0.1302707996090362
542.2077230858065 105.56583358237842 -0.13161177922938805
542.2767326045765 106.02268250225777 -0.1284524204810964
542.4441676044548 106.06512729400436 -0.1285058453507304
542.6117331059666 106.10736414579307 -0.1285610571064808
542.7598057990984 106.23207486594109 -0.12797707324261864
542.907594123802 106.35832250376964 -0.12738134780528299
543.1740687909348 105.98485375043751 -0.13065980938347366
543.3617042679615 105.94390810493181 -0.13136059156403235
543.5296478689788 105.98627236949605 -0.13141569540397313
543.7767015477992 105.69569133692048 -0.13405211939823403
543.9448981168097 105.73768405205388 -0.13411045869941063
544.1131191894152 105.77991732990202 -0.1341671088783869
544.3209105820662 105.65579694671264 -0.13551359046965672
544.4497656181572 105.8645555670908 -0.13427960625273272
544.4009618658272 106.82204053146717 -0.1272412824482103
544.7867735142141 105.94904899255948 -0.13439393105699082
544.9553536029299 105.99149225464012 -0.13444983430019875
545.1240644115409 106.03373004852767 -0.13450750700172875
545.3323782949619 105.90949966329212 -0.1358559109191333
545.3031772589161 106.78604551495266 -0.12944590635459008
545.7097795053437 105.82731838441393 -0.13726416510371564
545.5617139312724 107.20516347468939 -0.12696812814016312
545.8893551294058 106.57973094421946 -0.1322028585359476
545.8998684221235 107.29031296821597 -0.12708017288474593
546.0690355743395 107.33302908633922 -0.1271353653045253
546.3969763150925 106.70741967117024 -0.13237202194375186
546.5266273615977 106.91726258288199 -0.13113190149783804
546.6762643165353 107.04327892910669 -0.1305418340495521
546.8457940047391 107.08586690419233 -0.13059873550383827
546.9954923952234 107.2123146039363 -0.13000567699015164
547.2445409619755 106.92074141588144 -0.1326535835420941
547.4938178692705 106.6285699451486 -0.13530631427090611
547.6835416207623 106.58753022208522 -0.13601227722710973
547.7739983141083 106.96483053550624 -0.13347514324857457
547.8843427225527 107.25872499615141 -0.13158480430394093
548.014648852806 107.46890779526173 -0.1303436342209352
548.1452103523937 107.67835748125566 -0.12910832286291907
548.2365260534222 108.05338855095638 -0.12658947140744203
548.4062626673974 108.09858178037985 -0.12662795402212623
548.7353143003852 107.4733811847154 -0.13186404400579477
548.8659376141205 107.68396003359163 -0.13062068954678807
549.0564235821222 107.64286117725896 -0.13132872301895304
549.3465030320195 107.18283919994104 -0.13528477889025226
549.4972572427298 107.30972205347662 -0.13469084437167567
549.6680659120722 107.35252926123059 -0.1347489141496112
549.8389269189784 107.39546783602601 -0.13480614546693914
550.0098672457863 107.43842443135388 -0.13486341720602013
550.0612027959181 107.98520014960576 -0.1310148150385544
550.4118955215692 107.27221325763605 -0.13693319689730288
550.5831144972167 107.31505975520406 -0.13699186625473203
550.6145404068187 107.946667597452 -0.13248609415330748
550.7659152029465 108.07373192388258 -0.13189218274732184
550.9572764338914 108.03284489676888 -0.13260056826942446
551.1287768971459 108.07590632223318 -0.13265828784483347
551.021125366132 109.29420575756794 -0.12360460333837864
551.2123245532674 109.25504328586251 -0.12430015216875745
551.3841092034455 109.29794627548009 -0.12435963131252947
551.595470648473 109.1746457207421 -0.12570786882156426
551.7672863654736 109.218130991231 -0.12576319859698515
551.9991739483206 109.00917148521586 -0.12777592146557026
552.1711905238548 109.05252738005694 -0.12783262083814861
552.3832666099667 108.92766434480188 -0.12919371212035458
552.5554255862207 108.97113597889874 -0.1292498802502564
552.7077188623375 109.09855663537013 -0.12865536767981212
552.859973016805 109.22649431337615 -0.12805702705156818
553.0323072858507 109.27029311064166 -0.1281112038859078
553.2048036423646 109.31376655973105 -0.1281680858190839
553.5778920516898 108.51359980776748 -0.1347659942356927
553.7707109273978 108.47230068097666 -0.13548050453431415
553.9634163589981 108.43184008609646 -0.13618869857117488
554.1362652094525 108.47528243435352 -0.1362465652168794
554.2891559245763 108.60304954136677 -0.13565083127963362
554.0007825623929 110.58759309193513 -0.12065936079005724
554.7156804160519 108.35168576675821 -0.1383899840748768
554.8888076163245 108.39539585915126 -0.13844651173417333
555.0418716347046 108.52386597719425 -0.13784606069287975
555.1348953197836 108.905261440381 -0.13528480469403803
555.3082706909544 108.94899527435979 -0.1353416951681652
555.3411450034167 109.58410398742852 -0.13081369403346343
555.51454859346 109.62842509883694 -0.1308663928228384
555.5877287182944 110.09467540085464 -0.1276479447930683
555.7218342450183 110.30500261058481 -0.1264139155042585
555.8950302400062 110.35126434504247 -0.12645211490365682
556.0287914288989 110.56374975618539 -0.12520171609901354
556.202168148571 110.60996918660143 -0.12524061122621788
556.4163856788435 110.48478093402954 -0.12660867153522304
556.7113918613843 110.02018759321228 -0.1306084442599058
556.88550798632 110.06439711050429 -0.130663486387391
557.0597599821649 110.10839722170331 -0.13072033758658108
557.3349211952924 109.72839286727587 -0.13406484028678278
557.5093616784693 109.77233474970001 -0.1341225192510933
557.6838833277479 109.81629806842892 -0.13418021788146461
557.8383108651531 109.9451230050273 -0.13358013553590808
558.0129903182333 109.98914706315787 -0.13363773436736892
558.1271938321795 110.2878329703132 -0.13172101559240446
558.4231402159446 109.822668608627 -0.1357269489208761
558.4567336576058 110.46102231811051 -0.1311770001948389
558.6317459182975 110.50509468265946 -0.13123496633176046
558.9684661559186 109.86961962982156 -0.13656197723247487
559.1638410501432 109.82882267631288 -0.13727835867996419
559.2179261399228 110.38242973276598 -0.13338621502975911
559.3931997483462 110.4268685328575 -0.13344209091985704
559.6898918055319 109.96120766768544 -0.1374532261255581
559.7238982363266 110.6002884933927 -0.13289890219516565
559.9398319536798 110.47488785805406 -0.13427219820181335
559.7107974870198 112.22045922750266 -0.12113898616246388
559.9875021707098 111.84029520601487 -0.12448797069640705
560.1024964549263 112.1402991452273 -0.12256341188043507
560.3188251145892 112.01468892435526 -0.12393907647333435
560.474499131025 112.14441582902717 -0.12333514871971829
560.6504848796252 112.18912775643646 -0.1233905813218712
560.8468251280964 112.14865106808594 -0.1241067237505149
561.0230366645302 112.19315154772329 -0.12416417395013468
561.2195296799944 112.15277478192284 -0.12487992200107101
561.395856257343 112.19753035215193 -0.12493577296083913
561.5521726380366 112.32675596178926 -0.12433685918216497
561.8095970589027 112.0314069940192 -0.12703015349444513
561.9051718861824 112.41665311853106 -0.12444651167004395
562.0819098622566 112.46115403040494 -0.12450509304750312
562.3396441243633 112.16563484071409 -0.12720028754802115
562.4556652649828 112.46604209743096 -0.12527502084640219
562.6324316870549 112.51153531110175 -0.12532647823911702
562.8094213747746 112.55646074457854 -0.12538252800482041
562.9864940311382 112.60140824855552 -0.1254385967282019
563.143337908959 112.73172906473512 -0.12483288912369517
563.320544345251 112.77685464086483 -0.12488795667582053
563.5182124399283 112.73637475669804 -0.12560698332578113
563.6350738637109 113.03580064595472 -0.12369063326474361
563.873080806905 112.82657436712293 -0.1257184730890799
564.0710759697811 112.78584414580965 -0.12644001716176945
564.2894535802112 112.65985425248792 -0.1278228457986188
564.4468608250837 112.79040399804896 -0.12721669438633398
564.645049900107 112.74998728807837 -0.1279363861353886
564.8229459436573 112.79520234790309 -0.1279922916155556
565.0621323450091 112.58330553598162 -0.13004201017463402
565.2198690536027 112.71396276700827 -0.12943579034595132
565.3980274358765 112.75920106475269 -0.12949209281532603
565.4946633774316 113.14727162156848 -0.12689028558020254
565.6934377789069 113.10664938202743 -0.12761272676272029
566.0964477440334 112.20849693152269 -0.1349846228546312
566.0299431168157 113.28295389059986 -0.12706116285841063
566.167642283397 113.50000260680115 -0.12578620614436886
566.326119641246 113.6301444111271 -0.1251853143909898
566.504802643235 113.67579046241356 -0.12523979469511914
566.7039022504634 113.63606089077025 -0.1259564727654947
566.9237157273807 113.50971344048165 -0.12734498430882013
567.1027519830757 113.55501084591 -0.1274027503123989
567.2818167428552 113.60056540900341 -0.12745871564948175
567.4609940141087 113.64602457441828 -0.1275156141888374
567.6402560271215 113.6915052397132 -0.1275725396383791
567.697241645633 114.25086399925789 -0.12364499749725155
567.8968811546714 114.21151474425866 -0.1243600850014559
568.0966296288128 114.17209004612786 -0.1250759535756174
568.2764983823224 114.21652688447438 -0.12514174472681816
568.4765424106124 114.17662421338748 -0.12586171113633782
568.6564129434696 114.22181327424077 -0.12592205926347333
568.8564221844463 114.18282083409493 -0.12663535971751116
569.057154877013 114.14117419197221 -0.12736943810517687
569.2575224877626 114.1014442536059 -0.12808885096956146
569.4581313251081 114.06108550024365 -0.12881333686135576
569.6793392870347 113.93462521082176 -0.13020567014058315
569.8597532031191 113.97982412193961 -0.13026711775734157
570.0401094799743 114.02564582272124 -0.13032393154810507
570.0356659568704 114.84767937891456 -0.12436199604508147
570.1957940798371 114.97916541192306 -0.12375492757195161
570.3147489142567 115.28387546549268 -0.12180482539821469
570.4951178939594 115.33114306881279 -0.12185119675064016
570.6758343963306 115.37733384371631 -0.12190611423824294
570.8157468984465 115.595191039999 -0.12063007232848122
571.1405229936363 115.03743397223175 -0.12536858999521883
571.3215238206495 115.08358925454867 -0.1254243771131769
571.3996988706098 115.5617317004517 -0.12213058028891055
571.5809570116481 115.60756324587966 -0.12218926602082547
571.7828721264025 115.5670763593162 -0.12291749433421728
571.98468779987 115.52739486739597 -0.12363967650537688
572.1662160430433 115.57324864380183 -0.12369878324534511
572.327542813354 115.70427112737116 -0.12309765404143036
572.5912245889293 115.40610736434272 -0.1258248129233266
572.8140821776404 115.27967319312208 -0.12722051149410163
573.0990567132578 114.8929503470782 -0.1306348074700736
573.239712191208 115.11227356500405 -0.1293497509423105
573.4217461192583 115.15833237259412 -0.12940846263529693
573.6038382330842 115.20453308932119 -0.12946627213307238
573.7860176203126 115.25075392422855 -0.12952412400073854
573.9683119939659 115.29687886617563 -0.12958291798986465
574.2746231590852 114.82301175847573 -0.13367420083545767
574.4157279739435 115.0427518592411 -0.13238709382682146
574.5983048896071 115.08886097077607 -0.1324466112312166
574.8222741893553 114.96168625082291 -0.13385006750877437
574.9636360466448 115.18149852857711 -0.13256299170876673
575.167138005364 115.14097971721611 -0.133294870327461
575.0603225983266 116.40277017158124 -0.1239280680746333
575.2432091449962 116.4494943814616 -0.12398379869483733
575.3436702214804 116.84240185651356 -0.12135520917212261
575.5059422681186 116.97637667686365 -0.12073473880531083
575.6689665540118 117.10758119640047 -0.12013594907404013
575.9757714844544 116.63602107999651 -0.12421159085528188
576.1798518598079 116.595788334953 -0.12494264436344338
576.3632696134423 116.6426243131499 -0.12499871024681397
576.5053536912153 116.86323053562998 -0.1237074416296764
576.6889360702086 116.91015334528524 -0.12376323347939433
576.8726345058169 116.9569805322879 -0.12381996779907922
577.0564210364041 117.00382966653645 -0.12387673301469704
577.4272003393585 116.2667796371413 -0.13001263662249585
577.6112112353405 116.31349027622043 -0.13007088811934864
577.7745107122761 116.44745750190066 -0.1294526865265766
577.9171384035972 116.66850908780977 -0.12815936433605657
578.1221532643941 116.62830406588475 -0.12889223061546318
578.161018759378 117.28528142496151 -0.12421878725160695
578.3662160508383 117.24508941775173 -0.12495195237050893
578.7379070758866 116.50709957117559 -0.131096625679902
578.9225425881162 116.55394456584091 -0.13115525015200546
579.1280495375704 116.5136630816331 -0.13188973038876384
579.2087883709478 116.9969606969459 -0.12856412900811165
579.3936683364766 117.04395565195293 -0.128622194332479
579.5786371262633 117.09097318535046 -0.12868028755372052
579.7429191319967 117.2251240155192 -0.12806287351008905
579.9280606399593 117.27220612835198 -0.12812087126263805
580.0509995755899 117.5804818067516 -0.12615353478275892
580.2361835961926 117.62817132719398 -0.12620722588587796
580.4214307433979 117.67599255790326 -0.12626009928965232
580.5445082658636 117.98485109764027 -0.12428884090940073
580.7092258710661 118.11952577096966 -0.12366857228363415
580.8737627010819 118.25535127983832 -0.12303958092275025
581.1012629664032 118.12762052631382 -0.12445467154265089
581.26620450855 118.2625425516728 -0.12383309434778766
581.3268524283683 118.8350472296012 -0.1198182534316743
581.5129003563109 118.88227272612023 -0.1198771659827571
581.6988380840362 118.9303587627941 -0.11992960989977064
581.885065743281 118.9776283750927 -0.11998859027067965
582.0714140778191 119.02479134962914 -0.12004860282416985
582.2995343390564 118.89727113996871 -0.12146350478309387
582.5070201405427 118.85664423277485 -0.12220475002249032
582.6937155051678 118.90355831274691 -0.12226731256430412
582.8803560389898 118.95110251077539 -0.12232519426606814
583.0670207891233 118.99894578697166 -0.1223809625153649
583.2331010025553 119.13345732219145 -0.12176481115716342
583.5867631256045 118.48225072788858 -0.12724223875977714
583.7318648712079 118.70548953601522 -0.12593840963950242
584.0656902639329 118.13826026236055 -0.13076501405384988
584.0642298628673 118.97647005259506 -0.12469237378832077
584.2514862657208 119.02424958147091 -0.1247498784539971
584.3345253782485 119.50913036834208 -0.12141776965694362
584.6052622914588 119.20790713263906 -0.12418228378754748
584.8977148787455 118.81611395229075 -0.12764940694427196
584.9178048102262 119.56593536223056 -0.12226322269691536
585.2520910395864 118.99968716901324 -0.1270837160428755
585.4609401188152 118.95942440036427 -0.12782526197196376
585.4599271656248 119.79881993692715 -0.12174499979977327
585.647736958678 119.84749822771161 -0.12179718889035485
585.8147354405087 119.98376924929475 -0.12117027562914018
585.9819583428964 120.119500852567 -0.12054775186055622
586.1702320544099 120.16744652497309 -0.12060624544977827
586.3585985470339 120.21540918615298 -0.12066481593660683
586.5260199441789 120.35151762284778 -0.12003999120184972
586.7145356980476 120.39966504488658 -0.1200975454414106
586.9030824894174 120.44808896843452 -0.12015316440397328
587.2178336475067 119.96828362904523 -0.1243056315654485
587.280542824275 120.54462125485395 -0.12026747754259759
587.4694861050418 120.59260567406596 -0.12032713327130296
587.6585780280861 120.64037518959715 -0.12038866539813853
587.8478663923478 120.68772991887246 -0.12045362426783868
588.0371609197207 120.73546711723401 -0.12051582695090701
588.2265529102772 120.78320468090372 -0.12057823699041137
588.5834824401884 120.12970259195035 -0.12607932652321097
588.7518559991818 120.26629861214474 -0.12545302278863346
588.9835794239013 120.1380030557885 -0.12688130270385045
588.9838941967951 120.97919529754734 -0.12079089137580468
589.1944636172893 120.9402972717806 -0.1215262619555233
589.3633134950059 121.07651399890901 -0.12090373100267016
589.553047957478 121.12568510428694 -0.12095649865506175
590.0386738773254 119.93628580810537 -0.13061532962893807
589.9538290733437 121.13602204238583 -0.12174520276977319
590.143947305582 121.18482171637297 -0.12180148686434222
590.3340709795508 121.23401030666079 -0.12185496653353312
590.524374953794 121.28285597745219 -0.1219113177785971
590.6724719410082 121.50882461196812 -0.12059417571163067
590.8206685720309 121.73477985242738 -0.11927734533173862
591.0748429715521 121.51745733020385 -0.1213986458694194
591.3502381602393 121.21172139049202 -0.12420587366017344
591.5198653733623 121.349198047013 -0.12357589444104633
591.7107966094105 121.39790022363088 -0.12363463627713145
591.901968559594 121.44600879341445 -0.12369819509319768
592.1564067944104 121.22969686294101 -0.12581274639620688
592.3476928715012 121.27816333811805 -0.1258739595190832
592.5602005811813 121.23821470023614 -0.1266211139900406
592.7515632140104 121.28719313686095 -0.12667878494289653
592.921792327404 121.42504392729661 -0.12604739351377248
593.219503285407 121.02972916932673 -0.1295513465768181
593.1993775007364 121.96512934924533 -0.12273473090499465
593.6242616038475 121.03839997794725 -0.13036068475713591
593.8161502776112 121.08726842101801 -0.1304202856240977
594.0081037619842 121.13628264380037 -0.13047897054320856
594.1577434351001 121.36279705547639 -0.1291612004839635
594.2222107899086 121.94615657444763 -0.12507598910138995
594.3719135597582 122.17321572878501 -0.12375441050278368
594.5642153452318 122.22242109073053 -0.12381246185617556
594.8204346315698 122.00457762454012 -0.12594194063103714
594.9491017146396 122.32090417588799 -0.12392864993285002
595.248135778228 121.92475947222978 -0.1274414635150265
595.4195419465686 122.06308427661654 -0.12680917591546859
595.569753318043 122.29050651667913 -0.12548606407858642
595.7839459724481 122.25063917347691 -0.12623626040590352
595.9769554856321 122.29982559310214 -0.1262959738459699
596.0209413562469 122.97292297959457 -0.12151683780524536
596.4058022242228 122.22028087837052 -0.12779598514413237
596.6204143613312 122.18035712902432 -0.1285474937594131
596.7711365319037 122.4081442747669 -0.12722284024067676
596.9221116188642 122.63528616134997 -0.12590340400953437
597.1156548067069 122.68476566880815 -0.12596214509170522
597.3091742484544 122.73476689028158 -0.12601705726717682
597.502969944639 122.78403516818648 -0.12607787194070852
597.7181413098937 122.7443121894309 -0.1268291317285275
597.9333872461991 122.704705082017 -0.12757971316614203
598.1274492717873 122.75413372139874 -0.12763994051306327
598.3215155530487 122.80396846136404 -0.12769723644726128
598.4731032124233 123.03189716030079 -0.126373422788447
598.6886577155439 122.9927023563923 -0.1271216835903033
598.8404360836794 123.22067144690135 -0.12579798837123235
599.0134276586552 123.36033764510928 -0.12515940375277523
599.2079501948721 123.41037907679272 -0.12521618611049234
599.4025408628099 123.46056127367844 -0.12527209598658828
599.6830577665879 123.15183165470339 -0.12811203671259364
599.8994148442231 123.11185187033584 -0.1288677108627212
600.0944108619029 123.16162927350709 -0.12892742525593803
600.2895320047148 123.21131039074356 -0.12898810646203174
600.4846625771979 123.26137932900406 -0.12904599976616282
600.444100676836 124.29740092005576 -0.1214567492373817
600.6183223546884 124.43572644163204 -0.12083052295986363
600.8346237975945 124.39853212754312 -0.12156590759008168
601.2663808500123 123.46093282819263 -0.12928537979479415
601.3975808898967 123.78043453333079 -0.12725455545074738
601.5503880591725 124.01001498103008 -0.12592140909731597
601.7462236020344 124.06012419463433 -0.12598052975090468
602.0281474687239 123.75075732734233 -0.12882811635591906
602.2242292255587 123.80070608460369 -0.1288889293885518
602.4203495572052 123.85092390589244 -0.12894787723968193
602.6166258576086 123.90092034577818 -0.12900876418035523
602.8990267661167 123.59132703638768 -0.13185901832844138
603.0954912039061 123.64140841611422 -0.13191969559335348
603.2920529521537 123.6915146015607 -0.13198040291223379
603.4887414272429 123.7415229555844 -0.13204209168594616
603.7285593699994 123.611690844386 -0.13349893890153908
603.9254252038318 123.6618271843648 -0.13356008307727052
604.0792455241542 123.89230886413446 -0.13222259389857527
604.2116359626053 124.21278021112049 -0.13018731328401145
604.4303628828947 124.17283867822356 -0.13094781670139355
604.6275670602032 124.22328479872566 -0.13100744677137754
604.8248983892865 124.27363357664089 -0.13106805567207402
604.7416869679737 125.49681949890044 -0.1220316485741364
604.8744850967147 125.817687848005 -0.11999437170061356
605.2015058622205 125.32735246405262 -0.12424952417001123
605.3991407058267 125.37814899427065 -0.12430754486342721
605.5753243951922 125.51901738394153 -0.12366713313025457
605.7732379004144 125.56951868409958 -0.12372789201617707
605.971220545131 125.62016732472708 -0.12378773298024726
606.1691550027634 125.67145384738983 -0.1238428512003793
606.3024390498149 125.99329900279218 -0.1217995482504648
606.5223668999818 125.95356226344131 -0.12256115637040921
606.72067356113 126.00460048819127 -0.12261887449915321
607.0490077515205 125.51283861938262 -0.12688718618045414
607.0533315018672 126.37518084641934 -0.1206522654470632
607.2518753738857 126.42653542719009 -0.12070820394853854
607.4503679817682 126.47854288685586 -0.12075930448344252
607.6491461549276 126.52979642121754 -0.12081647950736851
607.8269621935669 126.66905503285096 -0.12019124139504811
608.0254231552263 126.72251038498467 -0.12023178952472335
608.202557231109 126.86549040881556 -0.11957813518358762
608.6403307794542 125.92021401313357 -0.1273661610026693
608.8396633958306 125.9713727152338 -0.12742521735520995
609.0173860171234 126.11323273753992 -0.126780941092818
609.0649655069235 126.79909535779504 -0.12191711483416157
609.3731824229401 126.3967961890623 -0.12549427910516897
609.5728958258483 126.44812325251036 -0.12555293682214597
609.9031385994476 125.95475584974463 -0.12983698658797493
610.081435676869 126.09642169463976 -0.12919535413573158
610.346685846572 125.87539783162325 -0.13136732086866232
610.546875529978 125.92652571308724 -0.13142844709722112
610.725437261282 126.06841371262736 -0.13078577626254173
610.9475557310602 126.02885622730938 -0.13155080647948125
610.7576365123537 127.7102936790707 -0.11896627014721162
610.9580509433547 127.76221669641595 -0.11902212303976967
611.1586003065922 127.81402109753242 -0.11907912557029476
611.641211035691 126.68855900592625 -0.1282684892246948
611.798487252734 126.92196154749698 -0.12691729637145954
611.8468482390236 127.61053841997877 -0.12203550003198416
612.026024128474 127.75336981487828 -0.1213873213658303
612.2707485178244 127.62298200167066 -0.12285876424112985
612.5374442882385 127.40132373782103 -0.12503843948633175
612.6078763685018 127.99947257329188 -0.12085899043245263
612.8092178342457 128.05154465276877 -0.12091576142415761
613.0107196234432 128.10339517857983 -0.1209744821356935
613.1906918835733 128.24556642260973 -0.12033279955704757
613.4795651179599 127.9335980370868 -0.12321419745353523
613.6595663695643 128.07654778582477 -0.12256694017418113
613.8614850861744 128.12845693754545 -0.12262613471858685
614.0197469867356 128.36303692419472 -0.12126853979248153
614.2218565320769 128.415043837671 -0.1213274376164577
614.3808459242615 128.64747276973029 -0.11998698602883451
614.7577353584456 127.97090990976906 -0.12569806621627322
614.9601857232643 128.0228598399783 -0.12575811101322643
615.1845735705643 127.9837068241813 -0.12652510223529134
615.2124578822859 128.7650768713421 -0.12092726806179144
615.480462795882 128.54479282893902 -0.12309981332396092
615.6395686400878 128.77941895549344 -0.12174370272441593
616.2150918836762 127.27679324169543 -0.13386431209517013
616.4183797135779 127.32798598807665 -0.1339316441424785
616.6215775455937 127.38000733098785 -0.13399278238944135
616.8249104689164 127.43191833466028 -0.13405501068331205
616.8964920386126 128.03401851069026 -0.12984942667378618
616.9683561885633 128.6353645666522 -0.1256499121318484
617.1938504084949 128.5961448824496 -0.12641976997741722
617.3535747651708 128.83178914743053 -0.1250576197125497
617.5793103174694 128.7924746425952 -0.12582868414961013
617.6733800246168 129.30292630783293 -0.12233518349427186
617.8773295665839 129.3554060803258 -0.12239462193628015
618.1033374233459 129.3163200710518 -0.12316461856096339
618.1975423570015 129.8275293655164 -0.11966592326712089
618.4017464711475 129.88030632586825 -0.11972375828696613
618.5401957398004 130.20783111822035 -0.11765045836142463
618.7226691594782 130.3521603983755 -0.11699853859323639
618.9272500142822 130.40472801317333 -0.11705870124285411
619.5721046921991 128.62133440748508 -0.1313617433268064
619.3365079973148 130.51083592808047 -0.11717219074716922
619.8716988897996 129.18584951294832 -0.12791960725076024
620.0987654524876 129.14650535565178 -0.1286937543001727
620.2818834293638 129.29091917030414 -0.1280426112288069
620.4871474680059 129.34342698516156 -0.12810467893206123
620.6925500160353 129.39581718419817 -0.12816789673672702
620.9419964434594 129.2649912903198 -0.1296526862323617
621.0813684961219 129.59366748618902 -0.12757303727346425
621.3311660962111 129.46230622310696 -0.1290624600518413
621.5369556102486 129.5149286606976 -0.1291248299996255
621.7428495371884 129.56757743230554 -0.12918723423837264
621.9488175225074 129.6203794598749 -0.1292486883197057
622.0003587608365 130.31754742192672 -0.12431153614949153
622.2065829276129 130.37018915735382 -0.12437470289773955
622.4128844516293 130.42297143586228 -0.12443701865078083
622.619135064819 130.47642938912037 -0.12449433213311067
622.847463421423 130.43830474286156 -0.12526236743826757
623.0318901689474 130.58367833325667 -0.12460709459071495
623.2385480268242 130.636830635733 -0.12466749877739858
623.2904515283019 131.33559614259232 -0.11971955931426237
623.4972141029502 131.3892244230541 -0.11977674256587534
623.6599547545057 131.62682926338522 -0.11840689487917189
624.0218126415468 131.03486606972245 -0.12347299908174136
624.4063452659291 130.3488862021482 -0.1292687366170071
624.3475883186188 131.51117398197263 -0.1207259856729479
624.5549454135165 131.56465710560306 -0.12078550100756047
624.7403722982555 131.710014027462 -0.1201325038304617
624.9699768185762 131.67170299837437 -0.12090463845868271
625.1776812488204 131.72514094559943 -0.12096522931221898
625.540909142287 131.13086691306705 -0.12605101826653708
625.7488382314094 131.18432278380862 -0.12611196340299102
625.9568441599063 131.23792732627464 -0.1261719975686333
625.9872426263266 132.0321615022296 -0.1204864311783922
626.484365719312 130.88185207914177 -0.12988698431377088
626.6260644982297 131.21319099927808 -0.12779306786086408
626.8345371145407 131.26673482647675 -0.12785454722870782
626.9540820285766 131.69130602152475 -0.12503779960400152
627.0960330581172 132.02296561425396 -0.12294210467342737
627.3269832473607 131.98424708103417 -0.12372008952962688
627.5581136483655 131.9452543639101 -0.12450044805513016
627.7671182010452 131.99892586956835 -0.12456214905216711
627.9984809814695 131.9599169120744 -0.12534312587723662
628.0516603886857 132.6637449768652 -0.12036127749797743
628.2832109248969 132.6248894934664 -0.12114154756739026
628.38126676551 133.1426565967864 -0.11760366451358095
628.5683781130637 133.28987360229385 -0.11694082790847915
628.7779242089715 133.344100691803 -0.11699967276285861
628.9875772526187 133.39835672057268 -0.11705853850554604
629.2418043271643 133.2674106100274 -0.11855449924559025
629.4740168098263 133.22865091876346 -0.11933550196334863
629.6170614099575 133.561788016391 -0.11723146468273171
629.7834816651279 133.79802044182358 -0.11587948303883877
630.1043254507608 133.3915248791381 -0.11951424031389024
630.2257832372472 133.81597723852866 -0.11670247480373064
630.5921886933785 133.22070283112456 -0.12180235411540252
630.6467574735631 133.92467547400187 -0.11682245249431844
630.8791512274732 133.8885068227121 -0.11758508402175494
631.090039636799 133.94238146365345 -0.11764937321572688
631.367853693243 133.71802609460832 -0.11987253457454017
631.5788503428516 133.77241470963037 -0.1199333352950589
631.7676472867629 133.91972685569453 -0.1192734416919734
632.0012298757974 133.8810211665658 -0.1200570055168555
632.1902669617673 134.02828747656932 -0.11939796124227087
632.4016324716819 134.08305601502852 -0.11945680570482864
632.7698358350574 133.4852693549666 -0.1245787501977702
633.0264498647289 133.35261818165617 -0.1260922004494205
633.2158491009769 133.50030962816197 -0.12543085807021725
633.1584830464332 134.67586508635262 -0.11679503253174062
633.3701475614815 134.73178438350124 -0.11684618858760132
633.604656974121 134.69307822745952 -0.11763175279929783
634.1312637751131 133.4388361433979 -0.1278484122611303
634.3211275922192 133.5869972990177 -0.1271846697309229
634.4440288633114 134.01439152147213 -0.12435471237665752
634.6342237721723 134.16212355446186 -0.12369479052790666
634.8466274859597 134.21788780744558 -0.12374866199650114
635.1041087048081 134.08650124725267 -0.1252548236729467
635.2944640193457 134.23501382260184 -0.12458959552407123
635.5074249837547 134.28991554013334 -0.12465091332433076
635.7879817351646 134.0639584998089 -0.1268915820396046
636.0462575415703 133.9312371468862 -0.12840912105644975
636.1018495806286 134.64256755351255 -0.12337814651618828
636.3152684783228 134.69750255531733 -0.1234402100029115
636.5513077649282 134.65878536629643 -0.12422915048983896
636.7649227151993 134.7138814446775 -0.12429047004803806
637.0688336583773 134.3937015423955 -0.12726372911293993
637.2150748654354 134.73014962365897 -0.125142604591872
637.496667045398 134.50384332773825 -0.1273880332885824
637.6881761714325 134.65288786454573 -0.12672143928813284
637.9927451606799 134.33197383351148 -0.1297014320708172
638.2070383306848 134.38719789520187 -0.129763286244156
638.2407299126322 135.19435407966836 -0.12399124693843078
638.4100265956689 135.4377524202001 -0.12259357453700659
638.6472544348306 135.39900057783936 -0.12338532689699377
639.088054575287 134.51379762352357 -0.13074488107605475
638.9636965113151 135.98037155138383 -0.11985743889550804
639.1561604340776 136.12931780000028 -0.11919361388089555
639.3935760633317 136.09174837937616 -0.11997720892895813
639.608698681884 136.14741471793263 -0.12003764776102344
639.8239639021699 136.20298071822006 -0.1200991204053139
640.0845474738663 136.07052788727862 -0.12161968753935071
640.3000179559108 136.12623217130596 -0.12168060114123591
640.5609568795008 135.99330460141476 -0.12320537153806299
640.6859560180777 136.42630721682002 -0.12033932392819224
640.8110480512865 136.859397074722 -0.11747284475154629
640.9815960365764 137.10390288774926 -0.11606984927294661
641.1975744953778 137.15994683988632 -0.11612939785749177
641.4136649119152 137.21602098997647 -0.11618896901092057
641.629899290087 137.27199262665414 -0.1162495926567999
641.8915666218891 137.1395196642441 -0.11777264071679383
642.1535604648902 137.00619641213527 -0.11930254926755879
642.3703182297398 137.0614929904612 -0.11936918875392166
642.8139913911849 136.17369798970458 -0.12675370242618555
643.0535835669149 136.13506656273526 -0.12754967723890331
643.0886304888643 136.94745797830385 -0.12174264984253114
643.2831087018129 137.09739353632602 -0.12107600136494057
643.4780553932364 137.24587515880165 -0.12042089028341252
643.7175395458025 137.2096757174936 -0.12119902228511137
643.9126040310467 137.35866194199352 -0.12054051117792142
644.2888162591812 136.75501941793203 -0.125722114618668
644.4608917594586 137.0005917394405 -0.1243146878334187
644.7014459625352 136.96196954166328 -0.12511266867619497
644.8964779470164 137.113097325568 -0.12443858046657397
645.1372723000503 137.07448551656938 -0.125237003529719
645.378100705519 137.03623976663286 -0.12603284932407632
645.5963049629923 137.09254621847018 -0.12609529302159217
645.7690150186212 137.33846096670845 -0.12468675397985862
645.987403146745 137.3950041766903 -0.12474787948906396
646.1376602351698 137.73523470951096 -0.122608019091615
646.333417586767 137.88683890282164 -0.12193204412443492
646.5073870016091 138.129497665618 -0.12054979525044018
646.726590021457 138.18465535018726 -0.12062270920529272
647.081212605461 137.67751698851646 -0.1250590053863334
647.3003490272117 137.73397851359533 -0.1251223347090331
647.3370107677048 138.54926472854237 -0.11929782542677003
647.5340818231389 138.6984126816075 -0.11864246675179402
647.8896969712403 138.1892305041065 -0.12309570089905719
648.0863498679905 138.34113828755153 -0.1224194572408237
648.2831046733899 138.49312479201754 -0.12174286314240135
648.4799301336568 138.6453202722799 -0.12106490808474746
648.7227112564718 138.60707117153876 -0.12186498561845838
648.9656210058148 138.5688018062525 -0.12266548703701119
649.002372649961 139.3875928627589 -0.11681579284146437
649.2225488651284 139.44477915936432 -0.11687611449883661
649.488683586277 139.3115378017796 -0.1184143523070702
649.7320479928413 139.27341561561283 -0.11921476763831151
649.8386318664202 139.80404051359378 -0.11560215620210101
650.0591863265541 139.86169192853396 -0.11565992492438681
650.2798233061782 139.91951196600797 -0.1157166504505085
650.5007199853794 139.97676501630656 -0.11577804111078649
650.7445865630873 139.93911675204797 -0.11657610678111041
650.965654285927 139.99668686994036 -0.11663557009268288
651.3242645223662 139.48347160816041 -0.12112446133210142
651.476769392529 139.82685983368114 -0.1189665792646224
651.9051449113441 139.0249512638381 -0.12569622611437126
652.1267866402301 139.0822244543062 -0.12575907628098548
652.3255269228931 139.23512506636152 -0.12508014117508992
652.570451373235 139.19673154192543 -0.12588588266345369
652.7924119519186 139.25422550604685 -0.12594782122238257
652.9685078996031 139.50270087297113 -0.12452803619606811
653.1677080549315 139.6557375232603 -0.12384910691184814
653.3900620452881 139.71313802119874 -0.12391256993652178
653.6125019628216 139.77069866757935 -0.12397505846854528
653.8349643791414 139.82868323368822 -0.12403452586704589
654.0346960348362 139.98156772668312 -0.12335784356878321
653.9806214287728 141.1887837788616 -0.11449985505697668
654.1805520878673 141.34183724617822 -0.11382237800035
654.4035545471313 141.39961413480194 -0.11388451281402467
654.6265761733647 141.45783074518974 -0.11394350489251792
654.9185992984594 141.23010173308708 -0.11622171082859722
655.0961056075951 141.47832138748052 -0.1148068162960385
655.2965057887677 141.63201026204635 -0.11412574991175006
655.5201965781953 141.6895300328643 -0.1141912296500891
655.7440088341802 141.74706689493527 -0.11425684735178265
655.9681090912485 141.8039299814453 -0.11432796442483095
656.1921347632909 141.86162481153667 -0.11439289811966091
656.4162545484553 141.91945150791634 -0.11445707975161667
656.6403830255338 141.9777650273489 -0.1145177550163794
656.8647253519526 142.03571423981 -0.11458152901155927
657.0889988853726 142.094472667768 -0.11463929523472416
657.4510136219552 141.58209375556672 -0.11912946605065144
657.6756438568493 141.64043692985152 -0.11919100771046942
657.762329414827 142.2717775613897 -0.11480623721257643
658.0556666815535 142.04602728466335 -0.11707294663841594
658.2118539905993 142.3899605736426 -0.11491905222430887
658.4369602237826 142.44841370437655 -0.11498082331013393
659.0792499424764 140.7762770840787 -0.1284727247152091
659.3047088832442 140.83437055606353 -0.1285378600682634
659.5998952227898 140.60367219547206 -0.13084438282243127
659.7558911726487 140.9510428938745 -0.1286651857416814
659.7492080470873 141.97388810706406 -0.12124434346077351
659.9982996973632 141.93601480477645 -0.12205529698263717
660.2475251040037 141.8981211654166 -0.12286668596755135
660.3805184873424 142.34297243119426 -0.11993206706733872
660.5837884403314 142.49678413357333 -0.11925629471744514
661.13566198678 141.20495907589208 -0.12979953492020968
661.3854968827268 141.16669647430086 -0.13061490882080307
661.6121390209798 141.22517870944358 -0.1306797785412641
661.5825499927747 142.3470587212741 -0.12249246850120699
661.8559739776169 142.21252406001813 -0.12405577715986738
661.9663428341881 142.75485832810492 -0.12036653336235759
662.1468263283936 143.00688160114828 -0.11893051162638812
662.3973539726292 142.96891223340526 -0.11974525486402854
662.647792609242 142.93185116615487 -0.12055322929739987
662.9452105552504 142.70049021459823 -0.1228693582781375
663.1027297895423 143.04987174134803 -0.12067888293665874
663.4004316665064 142.81841933917883 -0.122996285892782
663.6282086293625 142.87749626175454 -0.12305929465094323
663.902814436406 142.7429162210045 -0.12462547834923043
664.1776019550614 142.60813002636468 -0.12619354634176716
664.3824189330406 142.764032272436 -0.12550596966406147
664.4938149379626 143.30783461661935 -0.12180830867231407
664.6986936511111 143.46453193458092 -0.12111510788264468
664.9973922269298 143.23276103182087 -0.12343696467257814
665.2962873974205 143.00073023630057 -0.12576112694915764
665.5250916235117 143.05985207223551 -0.12582602390983766
665.6134368945649 143.70183818896874 -0.12136774539101225
665.8424123488868 143.76131101166433 -0.12143046979139172
666.0714788909396 143.82094588387358 -0.12149221705271884
666.3944499150714 143.49183908743416 -0.12457118426283387
666.62391720124 143.5509048067879 -0.12463791624549003
666.8768390235639 143.51328629421036 -0.1254552776160267
666.8722650882985 144.54357050132006 -0.11798511405891077
667.1250165864598 144.5077209135723 -0.11878929961625317
667.3781752527394 144.47073150796518 -0.11960261593310406
667.6316315666422 144.43305676669507 -0.12042153611366757
667.9086544690127 144.29825567844438 -0.12199452848227565
668.0918904141707 144.55271175546042 -0.12054682140922068
668.2987302126378 144.70987632016423 -0.11985446278333711
668.599673012175 144.47759061120613 -0.12218488287356877
668.8772603666259 144.34265553947813 -0.12376006163151487
669.0609164313444 144.59753115001695 -0.12231022193009267
669.2917400295138 144.65748292532783 -0.12237346037920815
669.5462622282689 144.61977887411308 -0.12319488943182932
669.7537592903122 144.77748311219193 -0.1225000392115021
670.0085759427917 144.7396580451441 -0.12332297899507694
670.14615024578 145.1881691483174 -0.12037172954512698
670.3534386346707 145.34835933609884 -0.11965842889088663
670.8679139822323 144.23636646590109 -0.12881891962734926
670.7930610010811 145.5666016390466 -0.11902537654265188
671.0248443848636 145.62694181808655 -0.11908787058132475
671.1392984927793 146.17390181632376 -0.1153739341804112
671.3235537359524 146.43221972440298 -0.11390045977134378
671.5328527222666 146.58733126029222 -0.11322826592436286
671.7418949444348 146.74405138730435 -0.1125438709935338
671.9975371912437 146.70828591694308 -0.11335367608654678
672.2300509036841 146.76887999805723 -0.11341590523807099
672.4626172759466 146.8298078969802 -0.1134758306732806
672.7181487200047 146.79616870065178 -0.11427000062997195
673.0928662776779 146.2694437269338 -0.11889142204330483
673.3258946796929 146.33013689709298 -0.11895404267926324
673.5827171927065 146.29283938996772 -0.11977748437362834
673.7923288769971 146.4516217236099 -0.11907938397138196
674.0257993182198 146.51214655940075 -0.11914417597171223
674.2829887618902 146.4750019873475 -0.11996730087764718
674.5166869726224 146.53569697118448 -0.12003135160239253
674.9637850564677 145.71327623347585 -0.12694986855410662
675.1977669251519 145.7739354712868 -0.12701478930813437
675.0298773437534 147.49916793708195 -0.11416059918366273
675.2639147918381 147.5606605972689 -0.11421960486558191
