-668.246774937236 369.0641798686805 -0.6901484802035611
-668.1623514256426 369.99200700054024 -0.697026133425652
-669.30140449202 368.0010364349501 -0.6798474421032665
-669.554788750105 368.1236792045417 -0.68008812062385
-669.8507066657263 368.1452552010401 -0.6794953922565696
-670.1051891317493 368.2661246938135 -0.6797205589271584
-669.5570639376715 370.30264146628014 -0.6957332846856161
-669.5152372614697 371.13148840150126 -0.7017923587164887
-669.769371718686 371.25452438013076 -0.7020339660076615
-669.9813593502911 371.478566505661 -0.7031075673071427
-670.6165264644114 370.69313726725295 -0.6958611432953603
-670.8711993866042 370.816150668453 -0.6961012278659382
-671.295386242402 370.5350344571321 -0.6930102406955143
-671.5926834919047 370.5571660582597 -0.6924180178931465
-671.8479198018073 370.6801075020639 -0.6926561620872462
-672.1868928250188 370.603620443704 -0.6912502841891524
-672.4428770100894 370.72563028731247 -0.6914798472695338
-672.360043557533 371.65677387354367 -0.6983773040699361
-673.0816893476988 370.6681754442947 -0.6894530613983534
-673.2108700572438 371.09414171544637 -0.6921862610140579
-673.5093304039013 371.11648113631566 -0.6915925921001076
-673.7231633966918 371.34125752755284 -0.6926668047174758
-674.2754308823656 370.7585885890126 -0.6870862191415199
-674.5320009498411 370.8821986246606 -0.6873257956168572
-674.7469526973221 371.1055930557055 -0.6883872551926515
-674.6222976697627 372.14015975487905 -0.696133244613975
-674.9641857430184 372.0614084540035 -0.6947037377288439
-675.1363279320339 372.3883300800203 -0.6966169738815893
-675.393540595933 372.5125941886124 -0.6968596247267556
-676.1179258491352 371.52192091366607 -0.687913557115678
-676.3335842276463 371.7462412589667 -0.6889798818279473
-676.5914271006751 371.8702813406447 -0.689219331181846
-676.8068083364396 372.0961406192566 -0.6902974099108405
-676.7672497351151 372.9311631868478 -0.6963951110842572
-676.9828135143051 373.15748175103914 -0.6974760275037966
-677.241156843587 373.2820916212218 -0.6977183049834252
-677.8831506670755 372.49102866758096 -0.6904141662623715
-678.2265386225879 372.4134111895199 -0.6889890135390146
-678.4857180523442 372.53731089682736 -0.6892240775098344
-678.6600540138238 372.86425830891744 -0.6911319558183209
-678.8765587509266 373.09095047937194 -0.6922131782118299
-679.1358546708501 373.21589448525367 -0.6924554487661112
-679.3527456409522 373.4425495184804 -0.6935354285083122
-679.9105396733053 372.8554838384616 -0.6879092982333077
-680.0429860466929 373.28468961548174 -0.6906575149344576
-680.2602214111786 373.5118424315419 -0.6917401999299955
-680.4777040557747 373.738850242503 -0.6928212185834468
-680.8234560565619 373.6599352557325 -0.6913807729048926
-681.1263156502996 373.6839025690973 -0.6907876810287803
-681.1735123734767 374.31898115812265 -0.6952300303795482
-681.5623653306333 374.13843017114175 -0.6929506557962668
-681.8230427068168 374.2644810455408 -0.6931973861364895
-682.0841128013335 374.3900371402993 -0.6934395703136715
-682.3878978185837 374.41399904910264 -0.6928441013276938
-682.4787408507773 374.94709036031475 -0.6964436206832829
-682.7400647631758 375.07337953840323 -0.6966904290773073
-682.9589945109058 375.3013923609318 -0.6977750100332969
-683.2208488513893 375.4273069855603 -0.6980177878625682
-683.6962245251419 375.043546013221 -0.6940601903251604
-683.9584564569517 375.16943854517507 -0.6943018553992601
-684.2208975856206 375.2952777890331 -0.6945426091361924
-684.3982872987556 375.6247734746891 -0.6964610750339943
-684.7464842231258 375.54661449302176 -0.6950198818927333
-685.0093902235257 375.6726849968661 -0.6952611221065013
-685.3146075527078 375.6981040317276 -0.6946725002159724
-685.0201821957629 377.1567997116793 -0.7058938594221331
-685.7555593641191 376.1552590177661 -0.6968419604565952
-685.9757487315441 376.385202244128 -0.697937224283578
-686.1105931870402 376.8195441372695 -0.7007162730628806
-686.3313267342335 377.04910138446377 -0.7018073895106909
-686.5521325494925 377.2789413598838 -0.7029003541194925
-686.8588694501989 377.3038779924614 -0.7023044277214012
-687.1234156214492 377.43009159926186 -0.7025425515460597
-687.4303910014837 377.4553544157693 -0.7019483654697751
-687.6948459490345 377.58268774348056 -0.7021947624523932
-687.9594003541644 377.7102360565246 -0.7024424523161201
-688.2240449626953 377.8380218881015 -0.7026916202939333
-688.0585871301585 378.9942701929382 -0.7114147141360263
-689.0562541644002 377.37091365782834 -0.6972337412725551
-689.3215829763433 377.4984089374999 -0.6974790934988278
-689.6733786661996 377.41967565499385 -0.6960246822164322
-689.8958540570123 377.6505116973291 -0.6971205827541667
-690.2047618549716 377.6751975331464 -0.696517369689559
-690.5568902894707 377.59701614965127 -0.6950660817984158
-690.8231192430383 377.7246278674699 -0.695309995959235
-691.0894492646369 377.8524547865889 -0.6955552004833976
-691.398702454589 377.8781244168613 -0.6949581810451377
-691.6224023705439 378.10878015311863 -0.6960496924539825
-691.803008264755 378.4429266756103 -0.6979934376858523
-691.9834151535564 378.7780172387534 -0.699944466545162
-691.7749584972885 380.043303457207 -0.709559397227963
-692.4739621885257 379.1394207010449 -0.701300855303316
-692.6981613085466 379.3712044008483 -0.7023992072265628
-692.9651372069504 379.5011716879226 -0.7026581534979641
-693.1042460987168 379.93734361812744 -0.7054395718962496
-693.4153735430814 379.9626663217527 -0.7048353248502508
-693.8544590671887 379.68246932793375 -0.7017132953456553
-694.1232277235805 379.80999001582495 -0.7019501385328226
-694.4352511565943 379.83453623447457 -0.7013380502830273
-694.7473917613407 379.859260020543 -0.7007269413927588
-695.0167300506032 379.98680161574293 -0.7009624954462765
-695.1558842653618 380.42614289927957 -0.703766563957231
-695.4248215111605 380.5555785245061 -0.7040167356566371
-695.6940384511088 380.6848096873878 -0.7042647320468518
-696.1795770849428 380.29713375919624 -0.7002533354099114
-696.449309117207 380.42605078980785 -0.7004977739741207
-696.5023650659426 381.0736778535913 -0.7050154510694142
-696.7721711247593 381.2033620789753 -0.7052652131471291
-697.0857225324827 381.22887807786645 -0.7046562298025378
-697.4425787948464 381.1512724257912 -0.7031971313198255
-697.755969739733 381.1780942880016 -0.7025979330933296
-697.7225125589584 382.03506737865365 -0.7088378824913661
-697.949701380838 382.2690427674638 -0.7099444225869433
-698.2639623802455 382.295198339135 -0.7093382401827171
-698.8395796434712 381.69658810677265 -0.7035841540286469
-699.3275562344186 381.3080760534559 -0.699560591678619
-699.5987480830834 381.43863773664987 -0.6998131547958337
-699.8706763629415 381.5679080546918 -0.7000545816179056
-699.1840686926355 383.99092940749074 -0.7191933752004616
-699.4556738841596 384.1219701874017 -0.7194483351398162
-700.2508719751986 383.00073571651876 -0.7093855562584395
-700.4793887710462 383.235786082241 -0.7104964622059811
-700.7951392501445 383.262588988941 -0.7098911659338683
-701.023960660731 383.49786133443905 -0.7110028966262689
-701.5580674973805 383.00311652895135 -0.7060997339314667
-701.830685695966 383.1345281193479 -0.7063547977151075
-702.0605121453806 383.36881244094775 -0.7074568922354274
-702.2899945476244 383.60439993460596 -0.7085692164103534
-702.5632082316703 383.7358161919596 -0.7088228090877351
-702.8367069056131 383.8670261944802 -0.7090742001998933
-703.1541050298171 383.89365324195296 -0.7084634776318808
-703.4278879621259 384.02513323406356 -0.7087160897658009
-703.8769306825757 383.7376422755748 -0.7055165105383026
-704.107324449378 383.97391219899674 -0.7066314336595383
-704.468664896549 383.89725615053607 -0.7051678256297578
-704.786837330312 383.92438960853593 -0.7045587840082703
-705.0175434626027 384.1613496861733 -0.7056778750641115
-705.1617761460686 384.60577567804427 -0.7085056338058848
-705.4366890833934 384.7378948084963 -0.7087599814908572
-705.6679232188494 384.9750481364094 -0.7098791264940019
-705.8993593347315 385.21220374285264 -0.7109977775142511
-706.1748088312535 385.34448553881646 -0.7112519378455318
-706.4504258716044 385.47684779598666 -0.7115062527713008
-706.9017919778729 385.18896015119304 -0.7082979536943981
-707.2199448093671 385.22044613090037 -0.7077202246211414
-707.4960533322968 385.3530663281399 -0.7079751504215892
-707.7722659423591 385.48592066342036 -0.7082314949743704
-708.0487184381877 385.6186844645132 -0.7084865831186562
-708.0197394042106 386.4832054529352 -0.7147694320375422
-708.4725104793963 386.1947987808246 -0.7115538549543885
-708.9242406276009 385.90934889205334 -0.7083621458041307
-709.2018404522929 386.04130258954814 -0.7086085162032987
-709.4791450971155 386.17444907830225 -0.7088641999466176
-709.6695163127325 386.5162461802907 -0.7108382230009624
-709.9472060255449 386.64944920286337 -0.711093339851061
-710.3127234020697 386.5728238958712 -0.709619398679024
-710.546357083948 386.8124980212555 -0.7107505869144575
-710.4727368145267 387.7884650029042 -0.7179467191985509
-711.3681720259287 386.444250356524 -0.7060290607656157
-711.6908316624621 386.4721793847028 -0.7054143955899121
-711.8815509153482 386.81658177733385 -0.7074062523674343
-711.675186129213 388.11249952300017 -0.7172359156739958
-712.0858946619019 387.9310405682956 -0.7148947963771661
-712.3212587747931 388.1700271062671 -0.7160166735304188
-712.2475792220505 389.1497238339599 -0.7232397453920498
-712.5270048074228 389.28418521064214 -0.723499514596881
-713.2914410855278 388.25739630017347 -0.714192839965051
-713.6151355148728 388.2867748137238 -0.7135859714251183
-713.9392729037354 388.31558043615155 -0.7129738687221447
-714.1767216245948 388.5525349213143 -0.7140758829443143
-714.5451135744447 388.47631021413895 -0.7125975559203539
-714.207275404733 390.0924083454057 -0.7250591877574379
-714.620626630598 389.90948813038057 -0.7227008952542633
-714.7687011256302 390.3625740568788 -0.7255811488290078
-715.0496120423005 390.49792652119316 -0.725843565458888
-715.6409115454593 389.89013737690993 -0.7199839248933699
-716.0108779869064 389.813097914379 -0.7184957673892995
-716.6461201036111 389.10095824572977 -0.7117755735701508
-716.9287520157702 389.23413174029264 -0.7120179907516899
-717.1666418166898 389.47500887341914 -0.7131470658346188
-717.3601971024361 389.82262153833415 -0.7151548152796181
-717.7312419829758 389.74544555653966 -0.7136629522750582
-718.0138027964223 389.8807887847764 -0.7139211337297411
-718.1190069190122 390.44163402259824 -0.717683715720284
-718.135270001813 391.21613715046146 -0.7232056756532188
-718.9065147115502 390.1819128480512 -0.7138283915249417
-719.1897204038974 390.3177124850526 -0.7140882218124034
-719.4727066730954 390.4545402810915 -0.714355991517607
-719.5792530004077 391.0147288451084 -0.7181104654111437
-719.8631198310195 391.15046301922297 -0.718368154981647
-720.1916532436314 391.17964708602676 -0.71774766300382
-720.519812654512 391.21022637441763 -0.7171381375350734
-720.7154072314773 391.5590434290044 -0.7191493850670554
-720.73244751819 392.33635556131065 -0.7246895575598842
-721.0171160580163 392.47270776149145 -0.7249496605506351
-721.3020206765871 392.6090002028741 -0.7252087378035412
-721.5869781205597 392.745672619925 -0.725470410846583
-722.4953778045458 391.38836385696834 -0.7134259431664418
-722.958571342625 391.09874257721583 -0.7101753071827943
-722.3534544196743 393.3706442919147 -0.7280227434753783
-723.4421125373017 391.5826111287238 -0.7124290322959723
-723.1479978282567 393.11004760995417 -0.7241433536764816
-723.3893501373012 393.3543034469836 -0.7252879482965113
-723.6307930290391 393.59885754370947 -0.7264344563598684
-724.1405185202923 393.2006980750161 -0.7222866456813222
-724.4270233580714 393.338225731857 -0.7225505518489399
-725.0713649538885 392.6182782324628 -0.7157512845573706
-725.3136859590729 392.86274988284396 -0.7168949816795589
-725.5114417329766 393.21459906406386 -0.7189225474301111
-725.7987234513539 393.3522989382335 -0.7191857276262112
-725.996817822339 393.7043788641931 -0.7212140952140089
-726.5965096131935 393.0939490651388 -0.7153142825200689
-726.6171140035743 393.87268812757543 -0.7208556987683323
-726.8603757360098 394.11801302183096 -0.7220031475580981
-727.4615274294795 393.505569271566 -0.7160851804105164
-727.7501981855853 393.6430119513888 -0.7163430035312786
-728.0387347278754 393.7812927985631 -0.7166071861091723
-728.3713651127047 393.8143367487422 -0.7160040667379803
-728.6605274051258 393.9521481977444 -0.7162632966538922
-728.9501971662922 394.0892602474062 -0.7165162207346611
-728.6572484133839 395.6243376612243 -0.7282824788742914
-728.811924755777 396.08632112008024 -0.7312099600337092
-729.8642048955271 394.3957706340219 -0.7164083584165724
-730.0200432736317 394.8559836546513 -0.7193201868395818
-730.3100718880238 394.9948366555121 -0.7195847089915901
-730.8247763254514 394.5952419809453 -0.7154140091809609
-729.9917877128743 397.42916675640674 -0.737874078303264
-731.4062388408433 394.87215485723544 -0.7159338059013862
-731.6521439267185 395.11893495571945 -0.71708502801431
-731.9432535840193 395.2577922188272 -0.7173468492832171
-732.1894822551224 395.5048503525368 -0.7184992508392156
-732.4808814914252 395.64406264759435 -0.7187628905228962
-732.6823451064026 395.9995822374598 -0.7208074511602263
-733.019123727249 396.03096734319405 -0.7201819352957273
-733.1308983296153 396.6027534862043 -0.724006501137751
-733.3778317461278 396.8507753229613 -0.725164044021767
-734.0302150143675 396.12643010347756 -0.7183128699720669
-734.0526709225426 396.9141510228284 -0.7239141222606804
-734.3451679476741 397.0544208912468 -0.7241825844055825
-734.2770593566096 398.06057884548295 -0.7315816440119534
-734.5698854166595 398.2011378006218 -0.731851351210139
-734.8629568286681 398.3416368080638 -0.7321200078829975
-735.1110506700301 398.59060815543876 -0.7332814387779649
-735.4949555175954 398.51416976574603 -0.7317623801085347
-735.7886542053568 398.65475010262105 -0.7320300359961607
-736.1276773662048 398.6870772958311 -0.7314056155637445
-736.2407713472518 399.26220081194504 -0.7352508191725633
-736.5349832413316 399.40315207956496 -0.7355198426271272
-736.8292574374275 399.5444862372532 -0.7357914588603762
-737.1237772246695 399.68576384867936 -0.7360620483954676
-737.6448253477552 399.28380935382296 -0.7318583698698262
-737.7133731428332 399.96858451981734 -0.7366037283836135
-738.1896312930239 399.6751908980236 -0.7332929859825299
-738.2131554047603 400.4691516620484 -0.7389363583779982
-738.6898053749647 400.1758708409917 -0.7356254361736774
-739.0306780930346 400.2090698685493 -0.7350026045763229
-739.3266000761533 400.35071787213957 -0.7352723115781714
-739.6227084056273 400.4924555525263 -0.73554219185894
-739.9188804589307 400.6345778264959 -0.735814673561606
-740.260687618853 400.66766840680725 -0.7351887019390801
-740.875231030699 400.0464353035324 -0.7291737659962791
-741.171632503494 400.18959967163516 -0.7294531531071584
-741.3329428647827 400.6576829742393 -0.7324076855011867
-741.630117057381 400.80008039803613 -0.7326796114027161
-741.7911205953837 401.2700072230098 -0.7356481605910403
-742.1341590953223 401.30335770618836 -0.7350209445253881
-742.47658746532 401.33870937541406 -0.7344096440830299
-742.7293239437375 401.5899932743597 -0.7355759547625667
-742.9370267141984 401.949977333663 -0.7376368178819348
-743.2354007788972 402.09275706128767 -0.7379084580250037
-743.533901384643 402.2357767515805 -0.738181502022428
-743.8326512804683 402.3787421190311 -0.7384535259457152
-744.1767717041814 402.41328037055763 -0.7378321075842678
-744.4758568432287 402.55652804590113 -0.7381053121836771
-744.7753824336298 402.69926377602656 -0.7383737267159063
-745.530651203743 401.7478434657723 -0.7296315686845105
-745.420108075075 402.8766615632954 -0.7380188842290067
-745.9937874736167 402.3624785254314 -0.7328761128580936
-746.2938494795602 402.50609451121557 -0.7331494946608359
-746.5941645473565 402.649651217107 -0.7334218112542317
-746.6205384644543 403.4518559529213 -0.7391171972574853
-746.921154622224 403.5958058075938 -0.7393915769636692
-747.1307609819363 403.95895378713186 -0.7414703558442852
-747.7973980234023 403.22463466500534 -0.734511526515746
-748.0986051676638 403.36879940522283 -0.7347859564281407
-748.4458013242958 403.4030201365763 -0.7341544858727502
-748.701785384236 403.6569447239323 -0.7353315581784159
-749.1859569459481 403.3631421809684 -0.7319978835927259
-749.3054785900054 403.94606917057735 -0.7358828965648172
-749.607773165531 404.09038572849477 -0.7361556693045941
-749.9101968242004 404.2349466497003 -0.7364298710839989
-750.1670605589146 404.48954522665747 -0.7376095617837564
-750.7422592463219 403.9797114844545 -0.7324941914351939
-751.0905617072056 404.0156699241457 -0.7318724070556186
-751.3496592956246 404.2665598798878 -0.7330198153716196
-751.653515124985 404.410445145305 -0.7332855453921638
-751.8664995795883 404.7732856131478 -0.7353535799817905
-752.1703163855279 404.9183866385803 -0.7356281410882275
-752.3365974377818 405.3946136043257 -0.738628607705607
-752.6406988765026 405.5401578155113 -0.7389056329102459
-752.9451813532197 405.6853461727769 -0.7391791393316112
-753.4334747445256 405.38926987537275 -0.7358187182373968
-753.7382766654176 405.5348000609506 -0.7360938727741768
-754.0432733490752 405.6804237181947 -0.7363692065815712
-754.3932440199715 405.7184970765909 -0.7357583979994615
-754.6534753566683 405.9728566457783 -0.7369278629665814
-754.9134783778586 406.2283342903524 -0.738105935665601
-755.3104152834522 406.1551809896799 -0.7365775445050531
-755.6619693833397 406.1916872928303 -0.7359514792883601
-755.6931788113808 406.9989304766423 -0.7416708371340519
-756.0455647391638 407.0345763856872 -0.7410364901327284
-756.3981741981562 407.070244906229 -0.7404017407421293
-756.7509451027112 407.10608585089716 -0.7397678219001591
-757.1040022445023 407.1417997067149 -0.7391322669697047
-757.4573456389575 407.17738695901505 -0.7384950793979215
-757.7646473018402 407.324248858664 -0.7387734831270905
-758.0261160442453 407.5818929454209 -0.7399634133366249
-758.3338615096159 407.72882897825 -0.7402412281781494
-758.3645746558133 408.54254434515815 -0.7460083279803484
-758.6264968415251 408.800838393595 -0.747201780967373
-759.2581594049253 408.1705065854938 -0.7410782360395842
-759.5666977852827 408.31781911511524 -0.7413567516808826
-759.8754346847693 408.46522644609536 -0.7416354466521398
-760.3230611863455 408.27915805161433 -0.7391679374217688
-760.6785635662006 408.31522194405073 -0.7385287182692082
-760.94179873037 408.5737811630017 -0.739720758371277
-761.2976648528181 408.61011245128344 -0.7390825407753709
-761.6995483467267 408.53632240958046 -0.7375370774051362
-762.0096298950082 408.68392246156526 -0.7378137590835081
-762.3659193758737 408.72094393105823 -0.7371794291675542
-762.7220900572263 408.75882184297103 -0.7365515510258547
-763.0330685143008 408.90598848091054 -0.7368228533637193
-763.2516879025259 409.27592432716835 -0.73892761426481
-763.3775952347978 409.8694976316262 -0.7428729620410195
-763.6422893369137 410.1297721438079 -0.74407363630894
-764.0000560306313 410.1667060294011 -0.7434349447908062
-764.2188181953467 410.53865889725984 -0.7455538326707369
-764.530492106914 410.687653070043 -0.7458365044886364
-764.8889543260211 410.7246497199283 -0.7451965063888224
-765.1545713367444 410.9856263170738 -0.7463998916124979
-765.9311344456876 410.01771874137285 -0.7374855049600342
-765.6400135808824 411.6195367547555 -0.7497265247029645
-766.5109039835202 410.4257539160379 -0.7389513963510126
-766.7774520462311 410.6868112397825 -0.7401530089006769
-766.9510897574493 411.172051676276 -0.7431996286566687
-767.4965785740218 410.76299851853287 -0.7388832074010452
-767.7642973343061 411.0230009420804 -0.7400742848496975
-768.0781216288495 411.1726322437489 -0.7403560995713292
-768.3922774763445 411.32205274046794 -0.7406355623933791
-768.706701077059 411.47141653573135 -0.7409139414051538
-768.9745117650033 411.7335630686703 -0.7421201871517837
-769.2425623102974 411.9957274817951 -0.7433259552734626
-769.5573799311994 412.14591592514586 -0.7436092619350916
-769.9191323892463 412.18371573078656 -0.7429667191641443
-770.4212901198129 411.88411520858574 -0.7395459531232405
-770.6900338808755 412.14697252661733 -0.7407549466333307
-770.9123705873645 412.5221457532009 -0.7428879336202954
-771.1349830725754 412.89726016385276 -0.745019801331182
-771.451094523021 413.0478834970529 -0.7453029625413023
-771.6739050832468 413.4237267195693 -0.7474395646349308
-771.9904001656275 413.5746206811888 -0.7477237003656683
-772.7267065709083 412.7153372896562 -0.7396912502618989
-772.9969046067183 412.97886480310905 -0.7409013830576896
-773.1283620119883 413.57705686835067 -0.7448658826718884
-773.538930256733 413.50380374830894 -0.7433023318951086
-773.8094405789805 413.76838820144684 -0.744519267348835
-774.1272445413678 413.9196927594626 -0.744803045106039
-774.4448458746751 414.07208368848325 -0.7450951379684057
-774.7627748676836 414.2242846394232 -0.7453850383623148
-775.0808485139265 414.3767368957331 -0.7456763783176825
-775.2135708572416 414.9761700012847 -0.7496465958479348
-775.6719898081008 414.7918336465518 -0.7471642578565252
-775.8983592075181 415.1669550884567 -0.7492866833834455
-776.1706277763601 415.4321431063357 -0.750503511479053
-776.3021754046209 416.03687620632707 -0.7545147656568361
-776.5747607966099 416.3025295583983 -0.7557341356007328
-777.2233599144892 415.66308695491006 -0.7495023562171355
-777.5434320697073 415.81555093391466 -0.7497887306918187
-777.8637779132013 415.967960719623 -0.7500740243753512
-778.1842687589243 416.1206268869728 -0.7503607932000591
-778.5515655893757 416.16114466777526 -0.7497237638278307
-778.8730110336675 416.31272117669175 -0.7500002939150363
-779.4284651445639 415.90115070628235 -0.7456406119103463
-779.7503025113547 416.05298241127934 -0.7459179847236328
-780.0715877043849 416.2067531076684 -0.7462106799931121
-780.3935616822455 416.35947368087903 -0.7464940921344123
-780.7158842583469 416.51196427610864 -0.7467749715926288
-780.9443826966062 416.8911311572813 -0.7489210749509425
-781.2668942690652 417.04439455056894 -0.7492070276726395
-781.6355377191566 417.08711032651826 -0.7485823833844734
-781.8652312322554 417.4652556871565 -0.7507181298044543
-781.9049821107202 418.3017392715929 -0.7566259318643347
-782.228177832068 418.45582792884244 -0.7569160835842581
-782.646062896009 418.3823411210193 -0.7553323667025325
-783.0169657503781 418.42268079891153 -0.7546849466345407
-783.5751045607634 418.0123876067592 -0.7503276554875242
-783.8989054565942 418.16745268900183 -0.7506232915019382
-784.1784209033422 418.42986944730995 -0.7518019035043721
-784.5960323207357 418.3600673766504 -0.7502453445500805
-784.9213659222754 418.5132871776782 -0.7505238536697334
-785.2459777244488 418.6688653560391 -0.7508211261816768
-785.5721299595991 418.8213497560913 -0.7510922846478252
-785.9929781247448 418.746188938091 -0.7494890568506776
-786.412239538775 418.67546030680614 -0.7479216735680438
-786.5024245400277 419.3986260339348 -0.7528881101242746
-786.2120339217581 421.0399057337102 -0.7654107276497939
-786.5382204977525 421.1954593834642 -0.7657038449594324
-787.670651061361 419.40789904788227 -0.7500029290605426
-788.0444959686295 419.4497423985513 -0.7493588757212706
-788.3718654476386 419.6042554857043 -0.7496415300732906
-788.652160514524 419.87289294797546 -0.7508628538707853
-789.0269113727666 419.9144168817167 -0.7502142171549622
-789.3542580389062 420.0708616486906 -0.7505108038969865
-789.5875068620612 420.4548292047112 -0.7526793863258945
-789.9155940331069 420.61074946088763 -0.7529703345927032
-790.290439259354 420.6545446892766 -0.7523377735471399
-790.6191210529655 420.8102846817922 -0.7526259245801157
-790.9480708194883 420.96600784279593 -0.7529132776230654
-790.8490579690665 422.1544479961052 -0.7616997088752555
-790.9880487950838 422.76958601697686 -0.7657668919522962
-791.555029559804 422.3531689516348 -0.7613432734511889
-791.6943545701743 422.9687879374313 -0.7654130667810364
-792.0240273312794 423.1259645626944 -0.7657090328672211
-792.3539193366305 423.2832457160675 -0.7660051957816449
-792.4932682600232 423.90076097564554 -0.7700885491255463
-792.8712465302602 423.94333425175296 -0.7694392947787492
-793.1540328529072 424.21615764846223 -0.770684390325016
-793.4847451671783 424.3740135092387 -0.7709826085168174
-794.0542946388338 423.95635008501233 -0.7665435473327307
-794.8153780411544 423.0772317856168 -0.7583060236548249
-795.1947325107697 423.1196036147468 -0.7576518450905496
-795.5265485727018 423.27729598847645 -0.7579461001315053
-795.4283999858653 424.47297001595007 -0.766782306643222
-795.7605260318654 424.63122417506 -0.7670798135964105
-796.808754292645 423.06233205888384 -0.7531622900348225
-797.1412654350861 423.2208875507144 -0.7534609883489338
-797.4734478846091 423.3808779403451 -0.7537708236731646
-797.8065162912112 423.5393730627985 -0.7540676803169504
-798.1405762209641 423.69611868331845 -0.7543494654426013
-798.4745611231998 423.8536889998822 -0.7546373637167676
-798.8085579578819 424.0118748711136 -0.7549296532082508
-799.1423658593446 424.1711617313555 -0.7552303281964896
-799.429255235007 424.44432466098965 -0.7564674952335508
-799.7633542143838 424.604204632032 -0.756771694906945
-800.0043226334469 424.98950072431853 -0.7589303145694544
-800.3382841070694 425.1510142183641 -0.7592465948482072
-800.3385534342568 426.1185845632639 -0.7661957176379133
-800.9602225288107 425.58698033695447 -0.7608065577070988
-801.1055121735536 426.20585548320923 -0.7648846681926784
-801.4892363845967 426.249864855526 -0.7642312105372753
-801.8247904235523 426.41079712728305 -0.7645392920751419
-801.7284280274989 427.6150222563896 -0.7734324056886521
-802.0652561976606 427.77421433275043 -0.773724768481884
-802.5941885282234 427.47029457621215 -0.7702053264764572
-802.8348612378853 427.8629186138005 -0.772417328019003
-803.1719310741945 428.0234816661908 -0.7727189275487945
-803.4128989622614 428.4167236466201 -0.7749346217776178
-803.8467500415165 428.34493389261695 -0.7733227526636597
-804.3290122484298 428.1568982206427 -0.7707535981080014
-804.8599960934396 427.8518570162028 -0.7672209174250497
-805.1499545484611 428.12943538498627 -0.768482044681889
-805.4885439922232 428.2902494116849 -0.7687816072645433
-805.9236658571192 428.2186174425045 -0.7671676605520474
-806.2626099313841 428.37988718747175 -0.7674696003856525
-806.6018477667437 428.5411081092341 -0.7677704472815208
-806.6517291757717 429.4017877175597 -0.7738264459565016
-806.9430873562295 429.67998618149903 -0.7750884904731379
-807.3794322943231 429.6086893189122 -0.7734738603740539
-807.9128160742424 429.3036710300359 -0.7699352803130637
-807.9146793783484 430.28306902695186 -0.7769653304757753
-808.2552396566958 430.44510226646884 -0.7772686705872616
-808.5959634585986 430.6074059474656 -0.777573540029664
-808.9853216024763 430.6528985996696 -0.7769165009870562
-809.3265206644667 430.8153836499565 -0.7772214723061097
-810.5397840757059 428.8719204212401 -0.760196504585906
-810.930227387565 428.91671578700175 -0.7595317151974541
-811.0785725198689 429.54703668575 -0.7636843171372334
-811.4208590243006 429.7095153237038 -0.7639864947305455
-811.7635087089556 429.8717867607375 -0.7642862663978462
-812.057688060796 430.1518350747977 -0.7655544695782055
-812.5462135242253 429.9630010300841 -0.762963754996747
-812.7924555638363 430.3602185801029 -0.7651946783680614
-812.7961700411728 431.3441320931254 -0.7722524848903163
-812.8483944535899 432.2115536270356 -0.7783509889192146
-813.4351685002065 431.78800504775506 -0.7738261344571811
-813.7792606980499 431.95153095388065 -0.7741312718123936
-813.9778072709317 432.46745130760667 -0.7773353195113373
-814.3223211853511 432.63132136953783 -0.7776418632856235
-814.5210624316155 433.1481576171687 -0.7808519977235164
-814.8659988582285 433.31237274041683 -0.7811599524105759
-815.211170797371 433.4766973972677 -0.7814680987732459
-815.5565108105 433.6412952738932 -0.7817777829251327
-815.8048004593678 434.04114387016403 -0.7840224306649475
-816.8327550867801 432.5571808645371 -0.7707661564551245
-817.5673086155497 431.7829913601687 -0.7633493423984987
-817.0868162619962 433.9464617886144 -0.7801030533159974
-817.921182829963 432.9323345341397 -0.7707106294455457
-818.512035223459 432.5074822809035 -0.7661661061769678
-818.8593687446194 432.67197172242743 -0.7664699744222503
-819.2070054504711 432.8364132782167 -0.7667727326526119
-819.5548131516118 433.00112721551426 -0.7670770152698196
-819.9982521905295 432.9353225345286 -0.765483909227612
-820.3467045287668 433.0998445005924 -0.7657851841454999
-820.2086805279882 434.4412672453552 -0.7757690195491023
-820.655028034023 434.3705019952523 -0.7741329341482128
-821.0038659284099 434.5361869653548 -0.774441588423997
-821.4019955671092 434.58337234855907 -0.7737745446711983
-822.0438968527093 434.04177158540114 -0.7682624610707762
-822.3455037754189 434.3237173554911 -0.7695255257527265
-822.1081364316257 435.9097496461595 -0.7815173404575262
-822.5071270582723 435.9576282579535 -0.7808531005039185
-822.8084580053255 436.24237581910035 -0.7821369870285366
-823.5014943165737 435.5804860191801 -0.7756316947875348
-823.8518449722926 435.74805076396296 -0.7759500286592242
-824.154640197065 436.0313315649262 -0.7772196800046345
-824.5540305611353 436.08167914685066 -0.7765721639877938
-824.3669883550343 437.5511815714195 -0.7875998175499603
-825.2093363250176 436.53149410121864 -0.7781472893076966
-825.3160295646495 437.291946410362 -0.7833398338039501
-825.6682192814195 437.45927221814617 -0.7836518046531182
-826.0205846099699 437.6268736428852 -0.7839653114639304
-826.8645830196731 436.6058260408793 -0.7744988435459277
-827.1686228767783 436.89170500548045 -0.7757840119743946
-826.8826556614235 438.60571883424194 -0.7888178828974901
-827.5802707031745 437.9408435182396 -0.7822795772887616
-827.933963121634 438.10873635244144 -0.7825918240262695
-827.894170773835 439.229395654039 -0.790741769347278
-828.6913260521495 438.3257084416671 -0.782236629933152
-828.5532577399281 439.6856362431647 -0.79235349425511
-829.4990720871401 438.42357433977423 -0.7808986231663084
-829.9033915789968 438.4724769896532 -0.7802282740340729
-830.2586118781093 438.64089811964453 -0.78054045484771
-830.4167783310135 439.28690355729424 -0.7847808989328655
-830.9696525801169 438.9784169434173 -0.7811681597577831
-830.880843275816 440.22359879300353 -0.7903363701397552
-831.1880123844296 440.51119230760435 -0.7916259469731131
-831.3962662916018 441.03891330645655 -0.7948902278420178
-831.8021634754842 441.0889929223542 -0.7942243461538965
-832.1589156258681 441.25873370986864 -0.7945421351541881
-832.5159145413924 441.4285919069316 -0.7948601439688332
-833.0707702604591 441.12022560550065 -0.7912432623373888
-833.4285988629433 441.28949184417894 -0.7915549228801524
-833.7864028570697 441.45953459734847 -0.7918722231008815
-834.4411776169666 440.91136708584077 -0.786280444550016
-834.7995020254597 441.0815632530499 -0.7865975317596963
-835.3068716648578 440.89163626680755 -0.7839513528238058
-835.7649674295324 440.82170339724746 -0.7822915615794273
-836.1243246960591 440.9915397186352 -0.7826034543632545
-836.5826035667321 440.9225827216883 -0.7809502098968437
-836.9425592577228 441.09240618969983 -0.7812604983045617
-837.3521657477776 441.14272752118603 -0.7805869804008694
-837.8112617904089 441.073926392568 -0.7789327907270263
-837.9241687782912 441.8441555596069 -0.7841798593915428
-838.433714863248 441.6546283711077 -0.7815310528192754
-838.9929226016438 441.3455372102241 -0.7778979683587863
-839.4038044424069 441.39635831434475 -0.7772248177304277
-839.1697382195713 443.0098876521446 -0.7894057954692926
-839.7797904748562 442.5798170028234 -0.7847752770711054
-839.5450121993382 444.1966490261961 -0.796981776292796
-839.9071322605414 444.3685469533812 -0.7973014962275897
-840.7671270676844 443.3352258905096 -0.7877064527775133
-841.7759534588787 441.9420476331523 -0.775150593321996
-842.0406501806676 442.3520445481357 -0.777426677611345
-842.4537250527109 442.40335427437043 -0.7767514954409762
-842.7178754439051 442.816161070503 -0.7790491427945199
-842.6329582246424 444.075365229649 -0.7883082375110462
-843.2963305672688 443.52251937050676 -0.7826611318958498
-843.6606140300231 443.69497892773745 -0.7829794195516797
-843.9753936333226 443.98811476341984 -0.7842895757956398
-844.3401704435785 444.1608579790098 -0.7846086543415822
-844.3059230829033 445.3011683297712 -0.7928857373250935
-845.2197618751 444.1450106225575 -0.7822723416446706
-845.5354000813498 444.439030365211 -0.7835866773068005
-845.9005744906916 444.61376202224466 -0.7839190336812862
-846.2668662561508 444.7865279916065 -0.7842344477870711
-846.6325951712954 444.96140062265334 -0.7845664156573662
-846.9982520241936 445.13719148721816 -0.784905161038921
-847.3643974330829 445.3125427665175 -0.7852395145487776
-847.7320488705443 445.4849892257981 -0.7855491981810019
-847.7523957054595 446.4999420177988 -0.792787926293613
-847.8694639593663 447.28126578970966 -0.7981041702136622
-848.1370786800292 447.69847427686693 -0.8004246803496358
-848.80580005059 447.1441910386917 -0.7947537348983928
-849.2242110189859 447.1973649126645 -0.7940784595650712
-849.542743690315 447.4933951114744 -0.7953999222889365
-849.9116039777531 447.66818122498086 -0.7957233566111199
-850.4814656350749 447.3564407099615 -0.7920443230177625
-851.051573737871 447.04482304152657 -0.7883655490992396
-851.2707626417915 447.58469962943195 -0.7916895106420156
-851.6407433410775 447.75976063156037 -0.7920120884446078
-852.0612339050045 447.8131115907931 -0.791332830502995
-852.4318209297354 447.98820894529825 -0.7916541373979271
-852.651753438986 448.52935987920097 -0.7949853733468331
-852.8714166641371 449.0719453005721 -0.7983275932487572
-853.1420521271853 449.4917108716522 -0.8006588376619561
-853.4632218111217 449.7897073633803 -0.8019877607459875
-853.8851065119106 449.84423223246824 -0.8013134120902805
-854.2070608889396 450.1418542946249 -0.8026376630418213
-854.6295746427332 450.19636758194315 -0.8019616417535644
-855.0523881532356 450.2509080408796 -0.8012850582291549
-855.4754972849878 450.30548649135386 -0.800608000634611
-855.848757805501 450.4817265114971 -0.8009307598086934
-856.8259735108808 449.1938137973008 -0.7892108665610067
-857.300494083402 449.1259167623577 -0.787524197215248
-857.4237797518055 449.9107609594204 -0.7928500177291653
-857.7980964442397 450.0874662056556 -0.7931734498442893
-858.0715879584377 450.5095276760275 -0.7955139686436041
-858.0421016917793 451.66738197201016 -0.8039050351979427
-858.3663640903853 451.9678680285465 -0.8052440257328612
-859.3482303135597 450.67371510760154 -0.7934675601437107
-859.82504199836 450.6055928158621 -0.7917734838278534
-860.2008643967355 450.78325363037044 -0.7920999750343185
-860.5770916370839 450.960705243501 -0.7924239406781908
-861.0040048591267 451.0159445886678 -0.7917420182278079
-861.431490424156 451.07056166011745 -0.7910541799959105
-861.656511279536 451.6172463201227 -0.7944123063948041
-861.9829789663896 451.9185534000289 -0.7957516219687477
-862.3605100571461 452.09672744250344 -0.7960774821615928
-862.4339852241434 453.0135754975172 -0.802477309087692
-862.9129817575815 452.94708271427356 -0.8007894165919538
-863.2407291385134 453.2484359403817 -0.8021258301874923
-863.56814482222 453.5513832666292 -0.8034745318925047
-863.9466135912944 453.73120604761397 -0.8038098652856434
-864.1737904477865 454.2790350805913 -0.8071707637934082
-864.5524845220605 454.45988936794214 -0.8075129369412934
-864.881628688002 454.76180627125956 -0.8088498699908655
-865.2605314807874 454.94372749230797 -0.8091991792686031
-865.6404998432816 455.12384804169886 -0.8095328623942919
-866.834661961283 453.3281659201878 -0.7936176312064731
-867.1647382873377 453.6309190472073 -0.7949582153190136
-867.5456231526642 453.8111145141853 -0.7952901208077492
-867.876194749548 454.1142555554004 -0.7966322397929844
-868.2072392489094 454.41704698606185 -0.7979706527232224
-868.588924529708 454.5976780770895 -0.7983036647555082
-869.0213539751759 454.65588613062044 -0.7976291277792029
-869.353582012057 454.9581921343329 -0.7989610635419808
-869.532367780138 455.63390817866093 -0.8033628117698868
-869.8132690939009 456.0624742338571 -0.8057313287682746
-870.1961463953601 456.2442047050395 -0.8060692254511537
-870.579527966714 456.4255069141424 -0.8064027718889974
-870.912184742816 456.73079963339586 -0.807755077138097
-871.2960193187665 456.9126012377446 -0.8080910659827509
-871.6804472208786 457.093760773994 -0.8084209438492849
-871.9115327813367 457.64817491417756 -0.8118192652318044
-872.3984382775018 457.58203046648447 -0.8101138909681822
-872.8346854174558 457.63972366184345 -0.8094260096384573
-873.2199815076793 457.82197912821687 -0.8097615656106996
-873.6056323476452 458.0041762525034 -0.8100958061720007
-873.9912446236842 458.18727136962406 -0.8104365942202207
-874.3774476669925 458.3697365211792 -0.8107713646851948
-874.7639320201571 458.55232432306394 -0.8111063053227667
-875.0993516824544 458.8597848684789 -0.8124672004444164
-874.7684119398156 460.78709152077766 -0.8271467308114779
-875.3087718696169 460.59828882100106 -0.8244252699512913
-875.7474112398816 460.657433999017 -0.8237417733240022
-876.2369097671694 460.59379766910274 -0.8220478623352392
-876.625310472543 460.7766235272223 -0.8223796707738416
-877.0140535556371 460.9594297394823 -0.8227104730072483
-877.0431326937904 462.01709370401426 -0.8302339201131304
-877.4317786294893 462.2017938640566 -0.8305785715399452
-877.8721256765455 462.2616579940282 -0.8298959241265607
-878.6720671849189 461.4483626375379 -0.8220330056029752
-878.8567545754986 462.1311949845309 -0.8264709565866042
-879.1951381999827 462.441306935497 -0.8278434069408149
-879.636593698973 462.50171188526724 -0.8271618433409458
-880.1300240857705 462.4365892077812 -0.8254473215823737
-880.5722087349744 462.49684024314234 -0.8247628100940005
-881.0651869730209 462.4344282494531 -0.8230689009194521
-880.6326544589407 464.622754674117 -0.8398799646143971
-881.488369022789 463.68018318413135 -0.8309475664741512
-881.9317616375129 463.7407892564919 -0.8302625529269676
-882.6311917244782 463.1797145640888 -0.8244652337772891
-883.0232540026727 463.3667350703732 -0.8248179194843601
-883.3655646698546 463.6755509632889 -0.8261711380391148
-882.7269911442905 466.3702528814301 -0.8471399726124673
-883.2749477052716 466.1807750881196 -0.8443944681382618
-884.5958074478768 464.11263099691956 -0.8262020842785773
-884.9896121937063 464.2995590776644 -0.8265497033814313
-885.3839798955892 464.4859498042706 -0.8268920403759239
-885.2121155649086 466.05022599819796 -0.8385620786856975
-885.6582293808918 466.1124826327473 -0.8378820449664772
-886.0531958517652 466.29996196094095 -0.8382306881755426
-886.8629244620225 465.4794853707371 -0.8302914594279969
-886.4294367818904 467.68365216403 -0.8472187137661535
-887.6025877680944 465.9808290614243 -0.8320235538316183
-887.1690202414115 468.18701305562973 -0.8489654989436417
-887.565194795472 468.3757808319631 -0.8493203442433241
-888.0136230922789 468.438273871542 -0.8486361605035881
-888.4104683025118 468.6270870366302 -0.8489896372552153
-889.6886833613396 466.6725273268352 -0.8317208515045422
-890.0865720196485 466.86041073523734 -0.8320650135525511
-890.5364951630816 466.92253839171696 -0.8313744282963853
-890.156370009552 469.0050764943945 -0.8472932233312349
-890.5028030307499 469.32075764702574 -0.8486853371875895
-891.3171954492161 468.49863031451645 -0.8407224674334088
-891.7161716271872 468.68812803551725 -0.8410754768015636
-891.7508878332993 469.764875041338 -0.8487217490558123
-892.4630950082371 469.19385037828573 -0.8428206777014111
-892.8628531994689 469.38399855044196 -0.8431763831570152
-893.263057091176 469.57391361692214 -0.8435292881135297
-893.66324540391 469.76471912514626 -0.8438886282426665
-894.0639580818803 469.95510194175085 -0.8442436073624435
-894.4651991350167 470.14505318494275 -0.8445941515454933
-894.2405498620716 471.85930156620486 -0.8574747736444124
-894.7462354115481 471.79678824200414 -0.8557480287632302
-895.2000786951788 471.86130928832625 -0.8550647294821374
-895.6021835237765 472.0526266379397 -0.8554229035255503
-896.0566682396283 472.11729026337673 -0.8547390076302008
-896.0413839034393 473.3264474649917 -0.863462685095385
-896.6009311421858 473.1370741278706 -0.8606886444519546
-897.0039927194483 473.3295239638004 -0.8610525354063725
-897.8259964262722 472.50282116108514 -0.8530375696235524
-898.2821201933996 472.5677643209686 -0.8523515401194572
-898.2675397189441 473.7796897862492 -0.8610933228297881
-898.6718862371155 473.9724654202771 -0.8614563072143824
-899.0766078282221 474.1651949302838 -0.8618180125964159
-900.5788396838957 471.68615409414707 -0.8402159881093212
-900.9847306244085 471.87767623379415 -0.8405660666435892
-901.391348496973 472.0682980126885 -0.8409078413663451
-901.5374542395389 472.89425463914165 -0.846471301604879
-901.9437187273472 473.08750303387694 -0.8468328355243102
-901.6153249609999 475.07097740818693 -0.8619093708848027
-902.0221775887236 475.2646056913516 -0.8622721473753359
-902.4816924961762 475.3308340923133 -0.8615867809421616
-902.8892415437131 475.524512550553 -0.8619481581660011
-904.0853582989566 473.79813138384895 -0.8465257586796042
-904.4932997403586 473.99253889109826 -0.846891380999466
-904.9020265791079 474.1859121083009 -0.8472475898031462
-905.363495080202 474.25167345779545 -0.8465539324689644
-905.7204584715638 474.5729162794121 -0.8479593869857354
-906.1824174715445 474.639236187566 -0.8472685022759947
-906.5922097678762 474.8335348265558 -0.8476286660230699
-906.8443502195711 475.41285311703086 -0.8511526674554943
-907.3072363975505 475.4795613128499 -0.850462228990466
-908.0335441211763 474.905244088539 -0.844501879831455
-908.4942290511009 474.97904716407004 -0.8438679639689894
-908.9047337477086 475.17601690691964 -0.844245513513215
-909.3676779181221 475.2460779389989 -0.8435790110582957
-909.7831313863223 475.4327616045906 -0.8438701742321086
-910.4083139696727 475.10917639591946 -0.8399662825751193
-910.7691963688908 475.4306306814579 -0.8413633537279566
-911.1824413014697 475.62535813146684 -0.8417178736509641
-911.2258483970869 476.72246183407395 -0.8494884032198229
-911.1105776894328 478.2073200529971 -0.860445006603868
-911.5242014867946 478.4038906992235 -0.8608118084334251
-912.3084479025463 477.69786310018077 -0.8537590231755985
-912.6698846808349 478.0234210372151 -0.8551841690146489
-913.0316731984244 478.3490303967364 -0.8566087954595218
-913.4466216939693 478.54594307594095 -0.8569747068746665
-913.8618796762771 478.74300262124564 -0.8573408912024547
-914.2775261312672 478.9400174557983 -0.8577057728211912
-914.693404153707 479.1373711539749 -0.8580725033011731
-915.1626326917803 479.20553880526757 -0.8573765223237046
-915.5790720134762 479.4033291212073 -0.8577449706655216
-916.1020500609267 479.3422212368888 -0.8559846273093399
-916.5192277013444 479.5400157018419 -0.856351239924436
-916.9896711052635 479.60881550905685 -0.8556567299252151
-917.4076455797291 479.80648025705284 -0.8560203974372484
-918.3024151909166 478.8421711750374 -0.8468331825420137
-918.7205733373719 479.0411669578361 -0.8472059464385211
-918.769424306682 480.1418689730718 -0.8549885665711372
-919.1353321948399 480.4701762443994 -0.8564221628919313
-919.5015172394295 480.798732201964 -0.8578568451626438
-919.9211395882579 480.9978580222902 -0.8582268434482785
-920.3410762089529 481.1971343203309 -0.8585971284973652
-920.7612467767246 481.39675808902473 -0.8589693182167935
-920.9690335789487 482.11545272749794 -0.8636064927563325
-921.4430772072102 482.18549696212875 -0.862911824376738
-921.757717857848 482.64537681709294 -0.8654200101507286
-922.1792202005231 482.84545934124213 -0.8657921299615623
-922.6010396293702 483.04569171677804 -0.8661645249261483
-923.0230972990341 483.24626738018674 -0.8665387836682612
-923.3922249722912 483.5769311157292 -0.8679811703415794
-923.7082090938944 484.0382199013451 -0.8704960815126697
-924.1312445540267 484.2392046233261 -0.870870807807762
-924.5545986268363 484.4403407186236 -0.8712458163309975
-924.9781930254121 484.6418203060224 -0.8716226848306974
-925.4557622052287 484.7124941181252 -0.870923630442519
-926.6292850545389 483.0854028863445 -0.8562714930220636
-926.8399956869871 483.80923211152486 -0.8609381602338999
-927.2650736237698 484.0107667637315 -0.8613116757570651
-927.6905503969789 484.2122632123505 -0.8616839091241104
-928.1164257546307 484.4137231105346 -0.8620548728458743
-929.0249731271014 483.4377873785984 -0.8527493341738932
-929.4515823754763 483.63928673897715 -0.8531187270025953
-929.1811811974429 485.54344733301156 -0.8674790410404967
-929.6080391860737 485.74628509191655 -0.8678574187356958
-930.0354523817427 485.94870922905915 -0.8682314226391554
-930.5705873719469 485.8890479449619 -0.866450752585763
-931.801742167924 484.1307469046637 -0.8507105495633027
-932.178409157443 484.4598366398576 -0.8521225808302688
-932.6074196195411 484.66205856211735 -0.8524910964251262
-933.0370792176941 484.86364256596426 -0.8528533898316937
-933.5184537400813 484.93987634202176 -0.8521846561496318
-933.8967208359605 485.26886947134557 -0.8535919504940352
-934.219464913614 485.73443226077785 -0.8561204801632698
-933.8423000823896 487.9104884071228 -0.8727035107903021
-934.219000594513 488.24626942539294 -0.8741635190812644
-934.7037628480451 488.31905453785816 -0.8734614546921193
-936.2093899419488 485.8990421311324 -0.8522748370564273
-935.8362292478466 488.06941551829055 -0.8688069325669971
-936.2682015609698 488.27398793609615 -0.8691848473712867
-936.6464643593234 488.6107344621837 -0.870647843184031
-937.0251755219688 488.94735555736224 -0.8721088051665333
-937.4040213796027 489.28461866877797 -0.8735740382454651
-937.8373322419332 489.4897773539937 -0.8739527819091677
-939.026957600279 487.84789114967907 -0.8591536894866749
-939.4612742237716 488.05244770341136 -0.8595255669167727
-939.4093750780255 489.4461005031667 -0.8696669432789008
-940.492996417564 488.06591340910177 -0.8570154096969418
-940.6035740485052 489.06451358916314 -0.8639086929272253
-941.0931267951424 489.1379613924338 -0.8631992842150567
-941.5829685715737 489.2116623446206 -0.8624909635063318
-942.0191781574117 489.4174067626779 -0.8628665900589567
-942.2930960346415 490.02079708443284 -0.8665084690041454
-942.7299159732828 490.22701066817336 -0.8668859232570867
-943.1668333788323 490.43396046848204 -0.8672684192878819
-943.5500822488754 490.77307812328354 -0.8687358478645706
-943.4995397950743 492.1736231545175 -0.8789233013256421
-943.9374290995695 492.3811796235059 -0.8793076991771045
-944.5927735202744 492.0580857096891 -0.8753311257055998
-944.9228526617271 492.5311631384683 -0.8778950973667179
-945.7418215632485 491.8099216669895 -0.8706453007058599
-946.0184831331334 492.4155675235415 -0.8742964480085789
-946.4580887384994 492.62380365744787 -0.8746813910947253
-946.8980315449704 492.832200194413 -0.8750666342995714
-947.9365712061414 491.57779966350097 -0.8634325015029276
-948.5391701183613 491.3903437001031 -0.8605634531285773
-948.9280242098794 491.7265686095661 -0.8619959410252704
-948.9339255367265 493.00036079612835 -0.8711303442516964
-949.3756578458342 493.20929681724317 -0.8715149408490674
-949.8178879806576 493.4180071728663 -0.8718966586819192
-950.4785541510249 493.0934293607137 -0.8678959801632118
-950.8668415360233 493.43605181819527 -0.8693758518761001
-951.3100729953607 493.6452797842872 -0.8697587574974932
-951.808226078889 493.7211533817071 -0.8690450419439344
-952.2522387166148 493.9304594688612 -0.8694265348658519
-952.7510532782479 494.0066956600513 -0.8687137523550064
-952.9224962903163 494.8848437117048 -0.8745880695717574
-952.9300131036636 496.1651119289932 -0.8837649065342816
