-24.79072367124519 -934.1666006012847 -0.0003744859647554222
-24.910465337502075 -933.7810305595099 -0.0003740051878367012
-25.031569635178542 -933.7601781206556 -0.0003736551611837058
-25.148190404163497 -932.6459465319554 -0.00037291428770913626
-25.266091893871067 -931.8982141859374 -0.0003723050534745198
-25.38540209882572 -931.5153550507091 -0.0003718264967460527
-25.504616881224454 -931.1308052192958 -0.00037134758565571246
-25.625412001963674 -931.1095467678141 -0.0003709982831878733
-25.746217218138586 -931.0902195742857 -0.000370649664944267
-25.868788657834614 -931.4355997688047 -0.00037043065219677374
-25.99144285546188 -931.7792984169389 -0.00037021078497900817
-26.11234716467447 -931.7610074219685 -0.00036986226893986895
-26.233248639276827 -931.7418414097557 -0.00036951343798818925
-26.356079207384955 -932.0842937275872 -0.00036929261227669485
-26.482981462472686 -933.1568062662104 -0.00036932971164560513
-26.604071202144578 -933.1385548200353 -0.00036898068606205925
-26.725163073880395 -933.1203719049693 -0.00036863167969158894
-26.846250347939442 -933.1010972705254 -0.0003682822834889521
-26.969491069237886 -933.4437947544203 -0.000368060388836966
-27.09062815889324 -933.4249043148128 -0.00036771099354382386
-27.218539643974967 -934.4999914960462 -0.00036774619030666145
-27.335202132904705 -933.7506092913626 -0.00036713984957259527
-27.454019990355164 -933.3637337950744 -0.00036666120234940536
-27.572770003233288 -932.9800703031943 -0.00036618393221488077
-27.681701186850372 -931.1403421992161 -0.0003651970446867381
-27.802558795132207 -931.1185640927347 -0.0003648473737598579
-27.91841047596416 -930.374185734424 -0.0003642451715677453
-28.039170502375562 -930.3509285198927 -0.00036389523057778206
-28.154764973773794 -929.6076499511012 -0.00036329416150238103
-28.278099657349742 -929.9491892625748 -0.00036307157370174536
-28.39883948964315 -929.9288991417873 -0.00036272278492788246
-28.51958058682195 -929.9086145285066 -0.000362373994448717
-28.637559874936496 -929.5279470874523 -0.0003619000087269342
-28.75825526564469 -929.5071726380261 -0.0003615511666907878
-28.876133865543494 -929.1302898119129 -0.0003610788623973349
-28.999661159866797 -929.4670928977831 -0.0003608539822721468
-29.12036803251167 -929.4472982631654 -0.00036050546941623907
-29.24107647036555 -929.4275303890695 -0.0003601569620172995
-29.358727223865266 -929.0438194613843 -0.00035968278166365053
-29.473266679843356 -928.3056354776315 -0.0003590865750311423
-29.59382447153677 -928.2833848427437 -0.0003587375771871848
-29.71438678453002 -928.26156600076 -0.00035838872594240456
-29.886795721988136 -934.0666922158027 -0.000360043799844334
-30.008061602674218 -934.0431653890322 -0.0003596923294253429
-30.122691316931146 -933.2938328503726 -0.0003590917531823834
-30.240505228897362 -932.9073454585262 -0.0003586160870554522
-30.365098773535564 -933.2523313123722 -0.0003583912128419797
-30.47593113208049 -932.1411883505884 -0.0003576678415697643
-30.596995303805656 -932.1195937822778 -0.0003573176545046408
-30.721609321762834 -932.4616400888772 -0.00035709163751107553
-30.824802888208893 -930.6270328349686 -0.00035612285870456617
-30.945688935425263 -930.6051990506213 -0.00035577308676693065
-31.059250186758568 -929.8601215027184 -0.0003551771010279481
-31.180043965566988 -929.8378102016618 -0.0003548274136733198
-31.29712419350402 -929.4575032128978 -0.0003543561024343944
-31.421670919958018 -929.7967316391987 -0.000354129235745404
-31.54248875550104 -929.7764379293577 -0.00035378022499799044
-31.667215522605062 -930.1198289257609 -0.00035355438575379594
-31.792025576433627 -930.4625253146387 -0.0003533280545298112
-31.91692926254358 -930.8054910781208 -0.00035310155811885124
-32.02578370846396 -929.6962831196512 -0.0003523844920323427
-32.138454035518414 -928.9504084510953 -0.00035179073057634014
-32.246908488516134 -927.8490755258583 -0.00035107770150943907
-32.36750636215576 -927.8282544159077 -0.00035072911794031825
-32.48809883820737 -927.8068746811374 -0.0003503803434909969
-32.61294255606866 -928.1478234309853 -0.0003501532721656986
-32.737892335752335 -928.490105256679 -0.00034992639302799944
-32.85861479486337 -928.4718695755669 -0.00034957841143068435
-32.97932623954446 -928.4525807572884 -0.00034923007234510806
-33.100032900002276 -928.4327803413996 -0.0003488815580112714
-33.22518214801636 -928.7726883871101 -0.0003486532389729291
-33.345942225013644 -928.7534000709028 -0.00034830476261049625
-33.466723669882626 -928.7356916228598 -0.0003479568088664564
-33.587507552305865 -928.7180284569611 -0.00034760886495632803
-33.70828094395557 -928.699402373394 -0.0003472605953334096
-33.85249306655939 -930.4887422373241 -0.0003475133152619492
-33.96873835063856 -930.1068180717936 -0.0003470437673058768
-34.08489236754757 -929.7246430334553 -0.00034657438476415336
-34.21062018770242 -930.0671128841251 -0.0003463453756467061
-34.3315700851044 -930.047777856901 -0.0003459963454588433
-34.45741817949919 -930.3890305222468 -0.0003457665472410554
-34.56848154883788 -929.6447588352363 -0.00034517791982580093
-34.684378079557035 -929.2628718987661 -0.00034470937140440583
-34.80521594798067 -929.2415120329758 -0.00034435991062764515
-34.9260833186883 -929.222179800246 -0.0003440111147483549
-35.04694541209049 -929.2023724855476 -0.0003436621584569366
-35.167809036194264 -929.1825777797609 -0.0003433132025065788
-35.288659230196984 -929.1617595275736 -0.0003429639068031065
-35.40426407284903 -928.7807750980554 -0.0003424965158842497
-35.52507138447487 -928.7599130968468 -0.0003421473252274154
-35.64054129702067 -928.3786723128363 -0.000341680221254137
-35.82110253248406 -932.3610522908732 -0.0003426395511496594
-35.9423766306335 -932.3411168008083 -0.000342289382956551
-36.063653376674125 -932.3212674439937 -0.00034193923903558243
-36.18491500558411 -932.3003415637703 -0.00034158874052536703
-36.30619370021415 -932.2804506338668 -0.00034123857568602034
-36.348315065213235 -927.171300170282 -0.0003392339350511975
-36.46896189342323 -927.1510049828134 -0.00033888540718862714
-36.57253782880072 -926.0502618762189 -0.0003381863861591228
-36.693068846384385 -926.0309172742236 -0.0003378385365522263
-36.813548157765084 -926.0082604796603 -0.0003374896106720371
-36.92247107926621 -925.2709432232547 -0.000336909600321178
-37.04291831441673 -925.2516560076743 -0.0003365620086697163
-37.16924292378302 -925.5902570906873 -0.00033632988487397597
-37.295685550040304 -925.9305611464413 -0.00033609805586820585
-37.41622558494042 -925.9112633244835 -0.0003357501980190136
-37.53678354509819 -925.8929462530488 -0.00033540265138753966
-37.65732665814126 -925.8736506540602 -0.0003350547856371122
-37.78400084656014 -926.2141629779165 -0.0003348223789316762
-37.90459137186605 -926.1948701871123 -0.00033447438022449205
-38.03138969351093 -926.5346811107358 -0.00033424136381654534
-38.15203581628932 -926.5158656962346 -0.0003338933840950631
-38.27269233742337 -926.4975530939488 -0.00033354556052245243
-38.40600034796847 -927.1958016562761 -0.0003334264272893961
-38.513967535985785 -926.4585107650141 -0.00033284912836961666
-38.63459412983501 -926.4382566359322 -0.00033250067286871854
-38.75516892156782 -926.4150602751236 -0.0003321512779166369
-38.86928306394043 -926.0358324419283 -0.00033168874921329916
-38.98986796305212 -926.0155423032444 -0.00033134039836113516
-39.11049209411959 -925.9973187115027 -0.0003309926992756118
-39.237726200857686 -926.3359418553081 -0.0003307580125806453
-39.365093826713 -926.6769027676266 -0.00033052381132847586
-39.48578233488884 -926.6571171167753 -0.0003301753536675278
-39.60646211066152 -926.63679781742 -0.0003298267237141772
-39.69971962744733 -925.1741143312487 -0.0003290232932045001
-39.82023356824779 -925.1543196425271 -0.0003286753257611963
-39.92688031536891 -924.4144600892006 -0.00032810081125944635
-40.04732916678374 -924.3957622627854 -0.0003277534326002751
-40.160744484906736 -924.0164247895033 -0.0003272928388469154
-40.30229437523374 -925.074716853326 -0.0003272832850029772
-40.42282668396268 -925.0555162432747 -0.00032693548484985513
-40.54333796698687 -925.0351832530084 -0.0003265873261284469
-40.606414159002796 -922.1433240345103 -0.0003253417612540943
-40.71947040378283 -921.77009268958 -0.0003248844360541625
-40.83954017482231 -921.7474715366468 -0.00032453668092102816
-40.959634895321415 -921.7260446863291 -0.0003241892961227677
-41.12385048933397 -923.8571538343174 -0.0003245116041625806
-41.24425680715923 -923.8378369096588 -0.00032416411721669647
-41.364674259213324 -923.8189868625219 -0.00032381677112880425
-41.49254665430475 -924.1573072724545 -0.0003235801684695616
-41.61301225118801 -924.1384966258901 -0.00032323270085043987
-41.73344894801567 -924.118242607419 -0.00032288478217878946
-41.853918156902765 -924.0994619133297 -0.00032253731529863217
-41.97437859485216 -924.0801964623535 -0.00032218969437280975
-42.09484096658109 -924.0609528309309 -0.0003218420760617846
-42.21531543099301 -924.0422007357236 -0.0003214946049183709
-42.34353496834047 -924.3797329127327 -0.00032125673010341416
-42.46403461705962 -924.3599699892715 -0.00032090881472868205
-42.592405675117 -924.6982379662502 -0.0003206707831964195
-42.71295191022991 -924.6784561479312 -0.0003203227291237454
-42.80963650474053 -923.5851712840146 -0.00031964594069222585
-42.93004091943263 -923.5648696258731 -0.0003192980956896463
-43.050434288682474 -923.544022848667 -0.00031895008072524433
-43.17087696177238 -923.5253101746234 -0.0003186027140600345
-43.29941666567686 -923.862843606263 -0.00031836393463891
-43.419882451180875 -923.843071910428 -0.00031801611174842037
-43.61495715867372 -927.0710769164212 -0.0003186560074937006
-43.74414221590769 -927.4113041498088 -0.0003184163980449739
-43.85665863568953 -927.029762113849 -0.00031795753147889627
-43.977507857471835 -927.0089663187257 -0.0003176082468030472
-44.08143717617644 -926.2671220588517 -0.000317040681409253
-44.193721276793376 -925.8869516608726 -0.0003165829779732121
-44.3059243294286 -925.5070709576441 -0.0003161256104817767
-44.426611551710614 -925.4867730290272 -0.00031577696745443973
-44.54732360630887 -925.4674603586324 -0.00031542861785283094
-44.676709126191355 -925.8081825960714 -0.00031518862448365326
-44.80616890076234 -926.1482267565051 -0.00031494817085331306
-44.92696315068492 -926.1284484513997 -0.00031459941703815275
-45.03891236367697 -925.7469759821801 -0.0003141421797181465
-45.15962672588939 -925.7256605184755 -0.0003137930844445691
-45.2003692249759 -922.4673679106655 -0.0003124754158534415
-45.320697412037234 -922.4465754331738 -0.00031212760524113037
-45.44106524524109 -922.4273283461907 -0.00031178025284361865
-45.5614471674771 -922.4085846222938 -0.0003114330464200066
-45.763441339684725 -925.6281380187361 -0.0003120502634033073
-45.89332302437898 -925.9685251597032 -0.0003118087437314898
-46.014140018202795 -925.9491688885488 -0.00031146008143423387
-46.144165952685384 -926.2898515995558 -0.00031121826305025024
-46.26503026308203 -926.2704860628962 -0.0003108694635898246
-46.37658727294025 -925.8906159652072 -0.0003104139261722594
-46.506726740171324 -926.2303469920159 -0.00031017143572853456
-46.618159639498614 -925.8490394276437 -0.00030971571874260917
-46.72006966160463 -925.107542569587 -0.00030915398963315965
-46.821817907282316 -924.3666475507331 -0.00030859293985940894
-46.923558629109685 -923.6321801746518 -0.0003080342836483396
-47.04403085681236 -923.6094429563443 -0.0003076853479910824
-47.1454602475566 -922.8731853365159 -0.00030712691113876645
-47.26591098671992 -922.8529013000724 -0.000306778941705943
-47.38641639739344 -922.8346017356128 -0.00030643155008647227
-47.506897670391304 -922.8153471274209 -0.0003060838743635941
-47.62739415446184 -922.7965979583241 -0.00030573634194297483
-47.74789224549164 -922.777849192365 -0.00030538880525909917
-47.87817591982988 -923.1157426487675 -0.0003051452290492307
-47.99872117920105 -923.0969841774264 -0.000304797555429559
-48.11928235734103 -923.0787431039313 -0.00030445002778378694
-48.24961963775186 -923.4120249437431 -0.00030420459802371624
-48.37023997072408 -923.3942167429136 -0.00030385706298829973
-48.4908474231163 -923.375884005496 -0.00030350937066714323
-48.61150253106602 -923.3591820001318 -0.00030316214548520293
-48.73211792351573 -923.3410021888274 -0.0003028144871564109
-48.872906736575835 -924.0324370509253 -0.000302671693020784
-49.0141075541488 -924.7320723696234 -0.0003025307605639682
-48.97048311632295 -918.9797925839553 -0.00030053114915062906
-49.10070843176133 -919.3136263583779 -0.0003002862396215278
-49.22079619982726 -919.2938745667212 -0.0002999394927201138
-49.34091403530569 -919.2751121912781 -0.00029959302577253766
-49.47130354846364 -919.6084156485855 -0.00029934745640503024
-49.591467189471295 -919.5896174552955 -0.0002990008468373162
-49.7116048455512 -919.5698827232401 -0.0002986539652169995
-49.84230773484907 -919.9077198204812 -0.0002984091830739999
-49.96252029036672 -919.8889232121807 -0.0002980624358883688
-50.07209716100974 -919.5130730565367 -0.0002976139795123345
-50.21356955215331 -920.2063059320926 -0.0002974699165747552
-50.3446170582078 -920.5465676432256 -0.00029722505513518627
-50.49721661119668 -921.5983088335714 -0.0002971818490777878
-50.6285066629172 -921.9376680208835 -0.00029693596900415287
-50.74898397872107 -921.9185164148571 -0.00029658834233714515
-50.869400193441834 -921.8973149043618 -0.00029624013194506915
-50.989864424163976 -921.8776472069202 -0.0002958923518008305
-51.09942424847122 -921.5037275217861 -0.000295444656046584
-51.230823119784326 -921.8391571160038 -0.00029519701814706423
-51.35125223232387 -921.8182221049225 -0.00029484886954378453
-51.46051144997618 -921.4387619695289 -0.0002943999787703433
-51.58093418913336 -921.4189798208333 -0.00029405227371626097
-51.701326970355986 -921.398201179853 -0.0002937042855251093
-51.799194572686325 -920.6630020116759 -0.0002931563074639598
-51.919501648575945 -920.6422515346292 -0.000292808571941805
-52.03984109781649 -920.6224853392614 -0.00029246110824487914
-52.137485041985215 -919.891300675955 -0.00029191524401994684
-52.269111297362414 -920.2266166874869 -0.0002916669213846035
-52.37799481356048 -919.8518001627695 -0.0002912208064458355
-52.49828274062116 -919.8330114226726 -0.00029087384905324143
-52.63004461642602 -920.1682991622545 -0.0002906251326066922
-52.7503328854113 -920.148070666134 -0.00029027764293232394
-52.81242863018696 -918.3454621058427 -0.0002894368465149455
-52.9324640430092 -918.3242051743022 -0.00028908969204621826
-53.05247041259338 -918.3020364010677 -0.0002887422831463482
-53.16100359848996 -917.9324097421237 -0.0002882990738157787
-53.281032727702524 -917.9121870977765 -0.0002879523188425992
-53.401096337164276 -917.892964431222 -0.0002876058354104316
-53.53295720483514 -918.2269569632527 -0.00028735636112742213
-53.65310215409649 -918.20876340031 -0.0002870100275913501
-53.78518791166783 -918.5454327293801 -0.00028676090551016387
-53.9172552850326 -918.8788927357662 -0.0002865106509943871
-54.03745761729831 -918.859647420132 -0.00028616376715717706
-54.1576440010894 -918.8398903401571 -0.0002858167394492739
-54.27781575908843 -918.819665827248 -0.00028546958054675997
-54.39800571420999 -918.7999368501145 -0.00028512255306623047
-54.50587968441187 -918.4220481156298 -0.00028467815803878693
-54.61375903750052 -918.0468585853878 -0.00028423474390137926
-54.69693407686146 -916.9609991182047 -0.0002835988838683079
-54.80458983880686 -916.5869335460746 -0.00028315651655930196
-54.9121003558184 -916.2111943099459 -0.0002827139421128777
-55.01955069411556 -915.8362290274395 -0.00028227182343698587
-55.12714247063461 -915.4677676629677 -0.0002818317053083774
-55.259243926474056 -915.7968112037224 -0.0002815797245148133
-55.37914364821017 -915.7785467506005 -0.00028123405797941814
-55.51155732929509 -916.1126359079257 -0.0002809830567684912
-55.64405282600683 -916.4465121055684 -0.0002807317456472447
-55.763993241453974 -916.4267916982449 -0.0002803854267767747
-55.88403818899301 -916.4099472828692 -0.00028003987381453044
-56.029472258569854 -917.0981332941765 -0.0002798827496803824
-56.18808163234563 -918.1460379686166 -0.00027982113937241593
-56.29534784537594 -917.7705029447285 -0.0002793793308910608
-56.428471641201384 -918.1080911388908 -0.00027912761368042993
-56.5616738328802 -918.4453526429833 -0.0002788755543292609
-56.68194286919221 -918.4270849663413 -0.0002785288426707666
-56.80212232909038 -918.4063337818634 -0.00027818146759273077
-56.92228510384764 -918.3851006837647 -0.0002778339618885184
-57.0425024816544 -918.365317001306 -0.0002774868368646821
-57.14952098254415 -917.990012431551 -0.00027704581356147173
-57.26964416463832 -917.9688175745157 -0.0002766984339359624
-57.38976841305205 -917.9476251495925 -0.0002763510521504031
-57.53669714239193 -918.6411378144918 -0.0002761916688314159
-57.616759956519 -917.5528412678646 -0.0002755637068503347
-57.73693394017099 -917.5340516092853 -0.00027521707124833483
-57.87056483576164 -917.8705031033434 -0.0002749635010559359
-57.99076761742882 -917.8512237526636 -0.00027461660329208826
-58.11091909036783 -917.8305605110284 -0.00027426933985452706
-58.23108898862857 -917.8103499918313 -0.0002739221914112022
-58.351259665742276 -917.7901279402857 -0.00027357503654457105
-58.43045639396546 -916.7056068001898 -0.00027295091615542333
-58.56421353599913 -917.0405152733641 -0.00027269641958582724
-58.684338041977895 -917.0212883198413 -0.00027234976249701504
-58.80452355516344 -917.0035931218008 -0.0002720034982530706
-58.938468861401596 -917.3386819290985 -0.0002717485363632477
-59.07251529377109 -917.6740603477677 -0.00027149339553034224
-59.19273323164098 -917.6548083464525 -0.00027114646508152873
-59.3268875052565 -917.9894830920662 -0.000270890759793474
-59.4331703359575 -917.6162244614264 -0.00027045257115787535
-59.55335260369726 -917.595961796038 -0.00027010536854277234
-59.68760685222484 -917.9297143186868 -0.00026984904013716005
-59.79366562316813 -917.5540533873998 -0.0002694105983778172
-59.98520884254296 -919.3179231920366 -0.00026952012552783344
-60.10563738599232 -919.298137092821 -0.00026917240251123076
-60.21168249915796 -918.9209213617306 -0.00026873342557109936
-60.31765035715889 -918.5439672124226 -0.0002682947634298216
-60.380363248571484 -917.1010108311189 -0.0002675849551110332
-60.485981007498 -916.7230321463294 -0.000267146904548099
-60.591657326413035 -916.3486513655441 -0.0002667100162625502
-60.69727749308126 -915.9750288619136 -0.00026627356663766477
-60.81735701410108 -915.9562512423132 -0.00026592720246298995
-60.93737879975271 -915.9360312620038 -0.00026558046920399647
-61.05736242535884 -915.9148566420016 -0.00026523349146145847
-61.17746586628661 -915.8965548243967 -0.0002648872352892795
-61.29763247543126 -915.8797346532726 -0.0002645413474056113
-61.43234731971869 -916.2124368584906 -0.00026428332949990363
-61.582012150125806 -916.9011513316287 -0.0002641144411086316
-61.70223603215774 -916.8824065798053 -0.000263767680962701
-61.80747927508726 -916.506871424936 -0.0002633315909861267
-61.957516747677296 -917.1969927152588 -0.00026316216832356076
-62.16823722113433 -919.3194672762262 -0.0002633498322666128
-62.258464312706785 -918.5851894890762 -0.00026282379201347794
-62.37887365489631 -918.5653999619524 -0.00026247612208862847
-62.49928425069858 -918.5456084296201 -0.000262128447957366
-62.61967620624293 -918.5253494514136 -0.00026178065394333316
-62.61799918383515 -915.6573389618221 -0.0002607269313443794
-62.72282073508234 -915.2831096681911 -0.0002602925151791169
-62.85812286770212 -915.6178596814086 -0.00026003359289461514
-62.978186855597556 -915.598123408041 -0.0002596869188664641
-63.113636775511125 -915.9331577109334 -0.00025942768371578495
-63.15664535596838 -914.1405371599116 -0.0002586445280599037
-63.261127337382774 -913.7675045418404 -0.0002582115134259766
-63.551920631863375 -917.6560183576023 -0.00025882460329285095
-63.51628384045118 -914.0804583316875 -0.00025760574936839475
-63.620681595903605 -913.7084324087651 -0.00025717334438013495
-63.740580251208314 -913.68975193093 -0.0002568275273802101
-63.86052573591074 -913.6720941159085 -0.00025648195543226393
-63.980405685335555 -913.6529175398862 -0.00025613600814722304
-64.10021783622565 -913.6321841220704 -0.0002557896779649127
-64.33064016612717 -916.0906971084637 -0.00025604566752690516
-64.40323190761576 -915.0075263625607 -0.0002554407161596828
-64.53912102723706 -915.3411249150142 -0.00025517970959754166
-64.65915863865246 -915.3203880275704 -0.00025483274083626384
-64.747441736504 -914.595751489469 -0.0002543157539207641
-64.89937291126392 -915.2819159223276 -0.00025413951806285695
-65.08392334864638 -916.6832214228016 -0.00025413500458171256
-65.20425659186265 -916.6649726605491 -0.00025378811835707893
-65.32456844088256 -916.6462172158872 -0.00025344110571268175
-65.44485834822915 -916.6269472702444 -0.00025309396517059213
-65.5650818971359 -916.6061985769768 -0.0002527464665149637
-65.68532954482669 -916.5859501352894 -0.00025239908421781365
-65.78911932884931 -916.2087782235986 -0.0002519664986380121
-65.86007912485901 -915.1235002196445 -0.0002513653826099471
-66.04610036511453 -916.525648449096 -0.000251357022477805
-66.16639979962422 -916.5064079643139 -0.00025100986590587127
-66.27013905278852 -916.1318730583761 -0.00025057839638975565
-66.47355563674952 -917.8918483165323 -0.00025065292317094645
-66.5772869377831 -917.5151774254799 -0.0002502206877466051
-66.63084659578229 -916.0726469365097 -0.00024953691047358006
-66.76774704014304 -916.406555015247 -0.0002492731593974895
-66.57107539974137 -909.6772187666991 -0.00024734558257932804
-66.69058924086744 -909.6589044192447 -0.0002470009883950297
-66.82671445198456 -909.9903466119862 -0.00024673851874013053
-66.96275661489419 -910.318172005766 -0.00024647494899454614
-67.08231913428746 -910.2989494684616 -0.00024612988210037656
-67.20190725091604 -910.2802316910393 -0.00024578492906357496
-67.32152189030647 -910.2620340092694 -0.00024544009318105964
-67.47461989182746 -910.9397056555462 -0.00024525742452397026
-67.61126317315433 -911.27263114878 -0.0002449940378141946
-67.7309190728643 -911.2524726860512 -0.00024464836155857483
-67.83347805495872 -910.8797047957454 -0.0002442208804609436
-67.93614387198843 -910.5109249218284 -0.00024379456914402908
-68.03867080232794 -910.141061064364 -0.00024336825043747012
-68.20971430101659 -911.1751034177536 -0.00024326637611693513
-68.34673374883887 -911.5092370828943 -0.0002430023719739438
-68.48373993649685 -911.8412703171518 -0.0002427376300602191
-68.60342146524879 -911.8196559853328 -0.0002423913440452452
-68.72325091321532 -911.8010207681004 -0.0002420457394123332
-68.84313731201183 -911.7835040003314 -0.0002417003864252365
-68.98037775682398 -912.1157108149469 -0.00024143504640505853
-69.10026027562355 -912.0971602946731 -0.0002410893229694011
-69.41440842358392 -915.9742348595623 -0.0002416321730152049
-69.53468931115516 -915.9538306911613 -0.00024128463940087386
-69.49506675928492 -912.7428423521455 -0.00024021160038500966
-69.57963517932151 -912.0195471630681 -0.00023970560891939385
-69.68183844337223 -911.6498433683253 -0.00023928026416797366
-69.783704717237 -911.2751754918628 -0.00023885403999202026
-69.83214686112332 -909.8468134546387 -0.00023818995759938844
-69.95159720100801 -909.8247246489667 -0.00023784414997862768
-70.07102809239433 -909.8022393330675 -0.00023749825101049282
-70.19062608231168 -909.7830186142423 -0.00023715308446980998
-70.31029718929204 -909.7652000310437 -0.00023680822874894147
-70.42987429823101 -909.7455121943796 -0.00023646294891932484
-70.54962439459102 -909.7291660565534 -0.00023611841328374794
-70.66940710515667 -909.713411293906 -0.0002357740037837175
-70.86124825378543 -911.0935293197831 -0.00023574106188561927
-70.98118041669625 -911.0771932675086 -0.00023539601539823707
-71.13747490793725 -911.7618236653176 -0.0002352068793811668
-71.29382775522522 -912.4441556948578 -0.00023501673013015534
-71.46908773451766 -913.485832933862 -0.00023490575460982654
-71.57071169722732 -913.113021663464 -0.00023448090053079795
-71.69076691376421 -913.0937991100326 -0.00023413444085917945
-71.81074421967821 -913.0730646045832 -0.00023378764342396607
-71.8935798248609 -912.346508577982 -0.00023328534683741964
-71.99486386309593 -911.9730278051271 -0.0002328612065980451
-72.1148399179876 -911.9547179522965 -0.00023251530757306682
-72.25338794369424 -912.2867936087932 -0.0002322462230495148
-72.22366639153198 -909.4497537656899 -0.00023128320515297673
-72.30602957652025 -908.7308205242879 -0.00023078505728335585
-72.42549016862442 -908.7101716533649 -0.000230439752044731
-72.54497839010432 -908.6900190275273 -0.0002300945519095876
-72.66451845991708 -908.6708107864595 -0.00022974955373911143
-72.78408649874058 -908.6520960678776 -0.00022940465856891024
-72.90357865870094 -908.6319439371152 -0.000229059447462987
-73.0419444154095 -908.9612624866163 -0.00022878986061414253
-73.18059151558738 -909.2941368506997 -0.00022852079075619258
-73.30017735388577 -909.2740205641512 -0.00022817532806129748
-73.41971395890567 -909.252976498477 -0.00022782966215117995
-73.53930134219019 -909.2328459790839 -0.00022748418984974705
-73.83218159576325 -912.3848117987036 -0.00022781955141226717
-73.97155716573766 -912.7187604817635 -0.00022754881882747213
-73.93683469142735 -909.8787817142221 -0.00022659885263465185
-74.15328925079835 -911.6179674323678 -0.00022662885186264248
-74.27329042504985 -911.5996202396849 -0.00022628286808412668
-74.39326772840168 -911.5808106627476 -0.00022593678113480564
-74.3770093113213 -909.1020845255666 -0.00022506794505261496
-74.49644180571869 -909.0789655082729 -0.00022472180762633798
-74.59664014541971 -908.7101108763876 -0.00022430244365523322
-74.71627600205765 -908.6914005461639 -0.0002239573585143262
-74.83583181265527 -908.6712297790764 -0.00022361196062092858
-74.95528109497255 -908.6491355834082 -0.00022326615390966253
-75.05520273361043 -908.2791654360384 -0.00022284716050080533
-75.19437166966259 -908.6083215559028 -0.0002225752432423178
-75.29426206962653 -908.2393133933293 -0.00022215669309844088
-75.41377960721977 -908.219139189415 -0.00022181140212751416
-75.53332577876763 -908.199449336804 -0.0002214662089841113
-75.65284778920844 -908.1793105358024 -0.00022112091846793192
-75.81218575097334 -908.8590345798732 -0.00022092136845230925
-75.93182325221542 -908.8393374338782 -0.00022057591451130065
-76.01136682794365 -908.1179446410467 -0.00022008482915225613
-76.1309497840667 -908.0987876314795 -0.000219739728663626
-76.23050530817564 -907.7306448680508 -0.00021932244453637395
-76.34998502798189 -907.7104044294874 -0.000218977236045248
-76.44930821701223 -907.3404643201059 -0.00021855994526731592
-76.56874823514131 -907.3202561039483 -0.00021821486086537334
-76.76932556669269 -908.7015035967543 -0.00021815764085886258
-76.88902689330767 -908.6827235375471 -0.00021781234482887157
-77.00862165114194 -908.6620839005441 -0.00021746666379840462
-77.14865718241875 -908.992213086343 -0.00021719265606634508
-77.24784331873744 -908.6212992045847 -0.00021677539342590535
-77.32657084589414 -907.9022849526654 -0.0002162874926625591
-77.44613842403992 -907.8826028777776 -0.0002159422418799295
-77.56562439719119 -907.8615097734428 -0.00021559670096849004
-77.68519417229044 -907.8418229651595 -0.0002152514422277818
-77.80482057890279 -907.8230731482053 -0.00021490636913767958
-77.94519007233998 -908.1549783648173 -0.0002146320728684259
-78.06483627597015 -908.1357662716979 -0.0002142867732572995
-78.20518936851225 -908.4651177080223 -0.00021401158079470406
-78.32485297073208 -908.4454131599559 -0.00021366605028561025
-78.44440804257775 -908.4238670389124 -0.0002133201468268453
-78.54321271757902 -908.0551900464712 -0.00021290478798619006
-78.70477870999129 -908.7356350451639 -0.0002126992060880184
-78.74035375097307 -907.3143540310273 -0.00021207410901524781
-78.94423491875601 -908.6967116150755 -0.00021200795958975505
-79.06395036378925 -908.6770053122264 -0.0002116622819130498
-79.16245609582398 -908.3061697734779 -0.00021124697144614402
-79.26095028342428 -907.9365805689181 -0.0002108321536411495
-79.38055333769604 -907.9164092034669 -0.0002104866219383439
-79.5002159804288 -907.8971982845492 -0.00021014127634089164
-79.59858918783922 -907.5284474619361 -0.000209727109790947
-79.71821548241516 -907.5093139084121 -0.0002093818954449489
-80.05278981549245 -911.0045179554769 -0.00020972607342173433
-80.1728563577825 -910.9853061019296 -0.00020937958572631032
-80.3146121385573 -911.3192325980071 -0.0002091021166847895
-80.41299299989652 -910.9468685419198 -0.00020868659510142606
-80.57647114265077 -911.6315646371893 -0.00020847717695460233
-80.69662981746777 -911.6123152649719 -0.00020813041498968232
-80.53361614857619 -907.0196734175387 -0.00020689626040848452
-80.63170201661852 -906.653889622313 -0.00020648400123945976
-80.7512019431376 -906.6339328365904 -0.00020613884021258855
-80.8706842183368 -906.6136725444223 -0.00020579361716954736
-80.99005444409568 -906.5915983005996 -0.00020544804135624872
-81.1095162479809 -906.5709766504032 -0.00020510274271146045
-81.20738401205097 -906.2057857285266 -0.00020469131891331926
-81.32683347818792 -906.1856236396402 -0.00020434622484799547
-81.46811462103443 -906.5123922867773 -0.00020406745585432873
-81.58778927376534 -906.4950708652349 -0.00020372277356273116
-81.72945744431071 -906.8258478278204 -0.00020344438985375746
-81.87108098743289 -907.1545047418531 -0.000203165349887513
-82.03500022746653 -907.8332684638964 -0.0002029524954423323
-82.15488785932656 -907.816422989324 -0.00020260738682509327
-82.27469649201979 -907.7983047664045 -0.0002022620317916335
-82.41661478041851 -908.1266732430387 -0.00020198205208998843
-82.53627529078082 -908.1055015016651 -0.00020163598884437306
-82.45433648354793 -904.9371714120037 -0.0002006983104365645
-82.57375883724195 -904.9184350743766 -0.00020035381919569772
-82.69315322026347 -904.8992396119603 -0.00020000923757379496
-82.83490735792148 -905.2270302949717 -0.00019972950866531392
-82.97679867696971 -905.5555694008085 -0.0001994496683437319
-83.09628457667836 -905.5363689252941 -0.00019910482609475366
-83.21580253898962 -905.5176408649892 -0.00019876006763297482
-83.42606033300586 -906.896182674998 -0.00019867448492050244
-83.5456936501086 -906.8764736694303 -0.00019832903831229487
-83.68814241878968 -907.2067191694871 -0.00019804825183200592
-83.80785516720962 -907.18751052841 -0.00019770276549024857
-84.01946715306184 -908.5725279633265 -0.00019761574469612242
-84.13945857130906 -908.5548260268533 -0.00019727002649005954
-84.28232352248075 -908.8852695807981 -0.00019698813673585391
-84.37921390331672 -908.5158817919919 -0.00019657792677207908
-84.47590320582513 -908.1447613148371 -0.0001961676458108741
-84.59565535387128 -908.1240075384186 -0.00019582147768915092
-84.73863931056124 -908.454171369724 -0.00019553914830794383
-84.85860415888958 -908.4359251841267 -0.00019519330447792527
-84.9784393742906 -908.4157025482647 -0.00019484709758899044
-85.00466869337089 -906.9895074033103 -0.00019424660490585666
-85.10102274371079 -906.619887217413 -0.0001938378252361872
-85.1738984591671 -905.9002551470492 -0.00019336623802246322
-85.24676137024247 -905.1830483322583 -0.00019289558213131386
-85.27264865784079 -903.7681784366639 -0.00019230023582395006
-85.3688791569081 -903.4051635358226 -0.00019189424318710735
-85.4881445037282 -903.3855094913177 -0.00019154985704972205
-85.60734680933203 -903.3649013932948 -0.00019120529702831845
-85.70333925142393 -903.0008703599324 -0.00019079960225099057
-85.8224977685356 -902.9802234318804 -0.0001904551517100117
-85.94169185483273 -902.960085080858 -0.0001901107881963071
-86.06085562984389 -902.9394831511872 -0.00018976633941747423
-86.18011830604675 -902.9203178444413 -0.00018942214120443168
-86.29948258613808 -902.9026208072521 -0.00018907819764990563
-86.41878426314135 -902.8839812513673 -0.0001887340832240625
-86.56172278959241 -903.2105326395911 -0.00018845054904659264
-86.70454634502579 -903.5341150598642 -0.00018816624418604988
-86.87159069609186 -904.2088610980791 -0.0001879430731719367
-86.99103845244622 -904.1897208559785 -0.00018759836098070082
-87.23092960214267 -905.9167506346398 -0.0001875576247130084
-87.35046248517938 -905.8956108287252 -0.00018721193401916025
-87.39761998754878 -904.8289831964521 -0.00018668498404394995
-87.54127498514006 -905.1575319517281 -0.0001864001617377653
-87.66078824386769 -905.1373321469578 -0.00018605487338163584
-87.75606422100151 -904.7689085035582 -0.00018564958276101606
-87.87560250113214 -904.749663583256 -0.00018530457612087048
-87.99511004517915 -904.7299581195604 -0.00018495948637564652
-88.11462017714094 -904.710270764049 -0.00018461439594830154
-88.2096676108093 -904.3416508614464 -0.00018420967893462148
-88.57498894519478 -907.8222771990294 -0.0001844615629238433
-88.620944289389 -906.7515247663499 -0.00018393648883829883
-88.74062266464804 -906.7303862816948 -0.00018359038739390598
-88.9098848089999 -907.4113930429049 -0.0001833632576904165
-89.05459910718518 -907.7428759378831 -0.00018307652396742924
-89.17458037339156 -907.7240904397315 -0.0001827304346306846
-89.2944969675672 -907.7043718258518 -0.00018238418368810017
-89.41437979834416 -907.6841596561925 -0.00018203784611614537
-89.53426382982661 -907.6639472946517 -0.00018169150507674203
-89.65418345004278 -907.6442165412815 -0.0001813452412307015
-89.77406926886675 -907.62399435542 -0.00018099889149425508
-89.69337635342713 -904.8034203695929 -0.0001801860335604033
-89.7629989267713 -904.0875921127022 -0.0001797250459389943
-89.80716695359797 -903.0200642579978 -0.00017920621428402228
-89.87675162053235 -902.3091763147456 -0.0001787471570651178
-89.99602188735852 -902.2895056651221 -0.00017840275086200563
-90.11536274597057 -902.2707937157974 -0.00017805849898877568
-90.2347068816268 -902.2521054879987 -0.00017771424654711154
-90.35401845047122 -902.2329465347857 -0.00017736991253514134
-90.47326038510865 -902.2128090062783 -0.0001770254141320038
-90.59246769376037 -902.1921791203166 -0.00017668083194166684
-90.71171067819903 -902.1720239222981 -0.00017633632404567834
-90.805809755446 -901.8074948915333 -0.0001759357975288367
-90.92480193416131 -901.784473246104 -0.00017559094072794323
-91.01840964041187 -901.4149928043532 -0.00017518997583465534
-91.0869957512709 -900.7057880958694 -0.0001747343626448128
-91.20614345024399 -900.6866384666861 -0.00017439049514678118
-91.32529156454932 -900.6674749070842 -0.0001740466214528169
-91.4698611181743 -900.9928702048068 -0.00017375805015262813
-91.5889856888779 -900.9727595497347 -0.00017341389337843793
-91.70811153705625 -900.9526499300035 -0.00017306973342101628
-91.85281485249217 -901.2774435769921 -0.00017278056196801117
-91.9978302094026 -901.605247318875 -0.00017249161930976697
-92.1688433361287 -902.2812475197674 -0.0001722576924976238
-92.31420609925584 -902.6107273114359 -0.00017196838632571598
-92.43348975421128 -902.5897052906244 -0.0001716234435775732
-92.50081668639992 -901.8739441328884 -0.00017116896992774855
-92.59407093155555 -901.5066113271447 -0.00017076979679586657
-92.68725574160669 -901.1395079539334 -0.00017037090464100402
-92.806579608191 -901.1213035213945 -0.00017002688809952815
-92.97787854674516 -901.7933767622707 -0.00016979070392153517
-93.22860920488641 -903.5163032840152 -0.0001697178128665655
-93.34809416504652 -903.4960914887749 -0.00016937260011218314
-93.49383237669284 -903.8227937574094 -0.00016908120761627288
-93.50807325784619 -902.4135203244412 -0.00016852084820584423
-93.60110895581506 -902.0466436700224 -0.00016812246116160168
-93.69407887070443 -901.6800403065993 -0.00016772436100609411
-93.81324761511846 -901.6584823220938 -0.00016737954524614906
-93.90617751305489 -901.2930495454708 -0.00016698199016218496
-94.02534290272774 -901.2719951518915 -0.00016663736982991395
-94.14461640137458 -901.2523402070366 -0.00016629296027304008
-94.26389022812435 -901.2326722907707 -0.00016594854508866774
-94.35655866333899 -900.8666185058444 -0.00016555149994701424
-94.47575474703294 -900.8464758778813 -0.00016520712927103887
-94.56852939880221 -900.4834742659832 -0.00016481091029163508
-94.68761365726058 -900.462414402705 -0.0001644665172761961
-94.80666321704095 -900.4408933113157 -0.00016412205201277175
-94.89921701399166 -900.0772398990335 -0.0001637262168401321
-95.01836987591587 -900.0575872747983 -0.00016338214913957927
-95.13734303781106 -900.0356049183906 -0.00016303772969195052
-95.2297832013962 -899.6726837352318 -0.0001626424859182407
-95.34889717479547 -899.6530431205778 -0.00016229853258664662
-95.46805065149454 -899.6338915610174 -0.00016195464814927618
-95.58716728971075 -899.6142505096882 -0.00016161068714382054
-95.7062106287516 -899.5936568777787 -0.00016126658186976783
-95.82521814160329 -899.5725928916888 -0.00016092240423404292
-95.9442651789567 -899.5520196613154 -0.0001605782958904456
-96.11773881737341 -900.2228950818176 -0.00016033552248018168
-96.29168333142852 -900.8975066777094 -0.0001600927967615462
-96.43853410788208 -901.2267657831405 -0.00015979920294739713
-96.58549397351078 -901.5562692672715 -0.0001595053910250499
-96.73237823085978 -901.8836843955552 -0.00015921102209404125
-96.90687359405342 -902.5579577547779 -0.00015896661449232852
-97.0816261615237 -903.2332372635084 -0.0001587218510508137
-97.17376372243754 -902.8684027595996 -0.0001583267564910784
-97.3208166485486 -903.1934483309656 -0.00015803103633516002
-97.44043217046993 -903.173783753177 -0.0001576856564611262
-97.58794299582365 -903.5028819045515 -0.00015739013741722374
-97.73556021311144 -903.8321875073866 -0.00015709439429656413
-97.85526417780324 -903.812472571312 -0.0001567487458373762
-97.77922241572561 -901.3568851930371 -0.00015605744158619927
-97.89838810766489 -901.3342870599148 -0.00015571225065968974
-97.93419275318264 -900.2776020027538 -0.00015522106161824922
-98.08137498759652 -900.6036082005219 -0.00015492533032102074
-98.20077015841075 -900.5849011412824 -0.00015458092673270585
-98.34807034741054 -900.9107057027403 -0.00015428478764079046
-98.46747225868916 -900.8915044471845 -0.0001539401825425557
-98.6149688417023 -901.2180749202641 -0.00015364377105697713
-98.73437846133842 -901.1983939023083 -0.0001532989671204632
-98.79721483953442 -900.4845601236406 -0.00015285789839936115
-98.88835222379362 -900.1195728319942 -0.00015246557478576506
-99.00744666143873 -900.0976010617984 -0.0001521208162671428
-99.12665611477675 -900.0770249403273 -0.00015177624788975663
-99.18921827925143 -899.3656915560396 -0.00015133687713841937
-99.30838050330271 -899.3455809787869 -0.0001509926140670359
-99.31426689089167 -897.9484576130529 -0.00015046035480281716
-99.43302679079967 -897.925555574816 -0.0001501161987675914
-99.49523579560439 -897.2173209097873 -0.00014967896987627682
-99.61421930448074 -897.1981652411408 -0.00014933556445839713
-99.73324296199985 -897.1794773080449 -0.0001489922180439862
-99.85230906686479 -897.1612826900882 -0.0001486489337594321
-99.99978875055498 -897.4852995444021 -0.00014835162744475383
-100.11889980168121 -897.4670826638408 -0.00014800820787286284
-100.23793571435398 -897.4479434123984 -0.00014766466028959258
-100.35697004606575 -897.4287679293659 -0.00014732110378190555
-100.47596708876414 -897.4091289021093 -0.00014697748167691316
-100.59492682342838 -897.3890282124794 -0.0001466337945430496
-100.71388784409858 -897.3689285836921 -0.00014629010428279798
-100.86147491618166 -897.6899538079685 -0.00014599139035453845
-100.9807165100228 -897.672648787128 -0.00014564793826821187
-101.0998835498391 -897.6544352907459 -0.00014530436163795457
-101.21897221119485 -897.6352720531733 -0.0001449606561436667
-101.33798185310374 -897.615155766669 -0.00014461682218325222
-101.45703329511429 -897.5955197282171 -0.00014427304733999335
-101.57608740896585 -897.5758996769846 -0.00014392927079143192
-101.695100816902 -897.555784022962 -0.00014358542654235862
-101.81415673485408 -897.5361548156807 -0.0001432416415809712
-101.93329516666046 -897.5174801964222 -0.00014289797570654628
-102.05239368168078 -897.4983186318972 -0.00014255424292741736
-102.17125023280207 -897.4763039193299 -0.0001422101411208132
-102.29014977417393 -897.4547840247842 -0.0001418661003640409
-102.40909332680147 -897.4337686756744 -0.00014152212145290832
-102.52811684373063 -897.413675190003 -0.00014117825674020423
-102.64714159795007 -897.3935821067615 -0.00014083438867373843
-102.76624574357064 -897.3743987655223 -0.00014049063196353018
-102.85579588815574 -897.0118383883622 -0.00014010369068273576
-103.00437963882882 -897.3351191012978 -0.00013980299183913303
-103.09376823780076 -896.9716666647157 -0.00013941617794444028
-103.18301438798453 -896.6075623202847 -0.00013902952622402154
-103.27231596856751 -896.2450944904604 -0.00013864332169077898
-103.4507736155808 -896.9118453848878 -0.00013838493748608016
-103.48037389853582 -895.8623266768541 -0.00013791393149631404
-103.59915601629942 -895.8413226507392 -0.00013757041307371765
-103.71805969229527 -895.821703346417 -0.00013722706216867664
-103.83704488715377 -895.8030036289764 -0.00013688382011878275
-103.95611446890214 -895.7852523167959 -0.00013654068965252009
-104.13481033313306 -896.4491472239548 -0.0001362805779763221
-104.25392498052118 -896.4308798798942 -0.00013593712964166116
-104.37304290855144 -896.4126309627611 -0.0001355936788058898
-104.49220627451784 -896.3948802535415 -0.0001352502833356084
-104.64146340375748 -896.7191612458819 -0.00013494805017444378
-104.760632842713 -896.700944904595 -0.0001346044657566381
-104.90988218608408 -897.0236183211935 -0.00013430166131911392
-105.02889067894048 -897.0030517290563 -0.0001339576645023044
-105.14786095327338 -896.9820409799711 -0.00013361361175157072
-105.29767813494269 -897.3091151391278 -0.00013331082629974844
-105.41689740260705 -897.2903892023168 -0.0001329669128722344
-105.56679366012129 -897.6168329197253 -0.00013266367130881918
-105.71688124998725 -897.9444219772527 -0.00013236031151109273
-105.86695952440013 -898.2709000850533 -0.0001320565680771324
-106.04741126861246 -898.9366862670494 -0.0001317921909276265
-105.82771849333571 -895.1235960944484 -0.0001310059538468522
-105.97748312384269 -895.4489764449427 -0.00013070269176296279
-106.09653582464045 -895.4307259801033 -0.00013035942475880802
-106.24612074094725 -895.7526052901349 -0.00013005537869048567
-106.42693567960866 -896.4209323735678 -0.00012979091275155952
-106.60801547162743 -897.0902412955478 -0.00012952606044791537
-106.57201486784021 -895.3494215769668 -0.00012898536101602076
-106.69111429975587 -895.331608217777 -0.0001286421232293833
-106.779117961528 -894.9697878655973 -0.00012825982651065715
-106.86702212333368 -894.6078164536657 -0.00012787775540346047
-106.98579016372092 -894.5872552640647 -0.00012753444025292993
-107.10456154224093 -894.5667190184348 -0.0001271911248750257
-107.1609026693687 -893.8594250542222 -0.00012677083014978052
-107.15588520842911 -892.4800276436995 -0.00012627593514480395
-107.27422376022128 -892.4575658621795 -0.00012593313266506811
-107.39269779212523 -892.4365818400279 -0.00012559049247329312
-107.51121537344847 -892.4160637785204 -0.00012524790122370177
-107.66093519030254 -892.7363774106734 -0.00012494289603637299
-107.74837940543463 -892.3763983589772 -0.00012456286032147545
-107.86707152733207 -892.3577447082531 -0.0001242204637605937
-108.04824049237841 -893.0187142108028 -0.00012395228168315953
-108.23001241959952 -893.6843357446608 -0.00012368411205443408
-108.34936120489252 -893.6708701638838 -0.00012334177398543034
-108.49969047550539 -893.9929919428772 -0.00012303571327265672
-108.61833235529299 -893.971353947581 -0.00012269235730855144
-108.70557424684566 -893.6104808110481 -0.000122312563576088
-108.98321546246804 -895.3046631326763 -0.00012215299483386843
-109.22970770801581 -896.6585343789056 -0.00012195588175245575
-109.25314805788642 -895.6088191358037 -0.00012150221573392628
-109.37198176686182 -895.5868383205967 -0.00012115819106384151
-109.45887616159968 -895.2221560202299 -0.00012077797379106414
-109.48204167972713 -894.1755554055605 -0.00012032623413915644
-109.56919598031476 -893.8164387459908 -0.00011994733620213083
-109.62387798857331 -893.1112445209377 -0.0001195325063463315
-109.71004604004432 -892.7438937456088 -0.00011915335750245504
-109.82884469296295 -892.7252065978588 -0.00011881064745011827
-109.94751581016232 -892.7051457526107 -0.0001184677909122911
-110.0664036633186 -892.687375629846 -0.00011812516709142074
-110.18512140349041 -892.6677811546477 -0.00011778235091242095
-110.30388221375853 -892.6486292570445 -0.00011743957628596036
-110.42260437030394 -892.6290531197408 -0.00011709675442261869
-110.60595522461549 -893.292617572491 -0.00011682336236162882
-110.72553416048862 -893.2811381527395 -0.00011648110671558243
-110.90842853434646 -893.9370959183277 -0.00011620619773111684
-111.09262157305695 -894.604897513196 -0.00011593198883019795
-111.37534694777085 -896.3067853794979 -0.00011576089224263342
-111.56027065957845 -896.9771628761027 -0.00011548556864227066
-111.67943204989862 -896.9561216942944 -0.00011514096433984378
-111.63438551285628 -895.2155491160244 -0.00011462592669886362
-111.36050101401787 -891.0864510431059 -0.00011387625022507564
-111.47891702008947 -891.0653607302091 -0.00011353373491829188
-111.53313606407531 -890.3746992832358 -0.0001131255772293116
-111.65186155886502 -890.3577033446476 -0.00011278369811407174
-111.77019553507404 -890.336614349424 -0.00011244141518318429
-111.88857232282038 -890.3159605354739 -0.00011209917181531637
-112.00700723362544 -890.295899023649 -0.00011175698273291346
-112.15770784246263 -890.6101250626411 -0.00011144695832854268
-112.27618980606822 -890.5900844159016 -0.00011110464390640118
-112.39471914047849 -890.5705209755715 -0.0001107623717189199
-112.51333840291221 -890.5518720406143 -0.00011042018286389066
-112.66489304182235 -890.8726495661814 -0.00011011016232487236
-112.84931695941694 -891.5308350756202 -0.00010983175178580495
-113.06781919881526 -892.5375280579959 -0.00010958563029817014
-113.18656752802323 -892.5174644425099 -0.000109242554458433
-113.33865859957916 -892.8392299767627 -0.00010893138204437491
-113.42433444843918 -892.4800675873842 -0.00010855664646669538
-113.57642441674801 -892.800900999772 -0.00010824513327634122
-113.6951768624231 -892.780382273948 -0.0001079018778682439
-113.94849496321001 -894.1322786796645 -0.00010768474095357305
-114.0675114674356 -894.1126419543793 -0.00010734106467680249
-114.18652915399062 -894.0930038305554 -0.00010699738447783602
-114.2718965498838 -893.7314913028326 -0.00010662265350447342
-114.05392712838344 -890.2931777959276 -0.00010596985913480239
-114.10538074678422 -889.593745961442 -0.00010556628188851391
-114.19011036563998 -889.2328061832494 -0.0001051935650480118
-114.30853061594419 -889.2132378665474 -0.00010485159947393186
-114.39342710349976 -888.8552768086256 -0.00010447951029846081
-114.51180743218788 -888.8357156172362 -0.00010413766011652115
-114.59665068747057 -888.4784983677081 -0.0001037659959024495
-114.71494468719789 -888.4584767698466 -0.00010342421990117145
-114.83324063639071 -888.4384628393682 -0.00010308244128509614
-114.95158388926716 -888.4189114050683 -0.00010274069950355624
-115.10386647644978 -888.7392900307548 -0.0001024284738946335
-115.25616800238001 -889.0589757358016 -0.00010211593905751215
-115.47644027622675 -890.0568516135793 -0.00010186156004010627
-115.561025386057 -889.6982494984786 -0.00010149011450266698
-115.67970157359224 -889.6802212513461 -0.00010114799380289696
-115.79808503740456 -889.6592627036131 -0.00010080561906988805
-115.98524341829521 -890.3219059385052 -0.00010052112423863946
-116.34450151533638 -892.6912756088922 -0.00010038002892542863
-116.49806731669572 -893.0152115162178 -0.00010006548887986355
-116.72083464035481 -894.0235031867657 -9.980790093777614e-05
-116.87471373922048 -894.3479079142124 -9.949264841679906e-05
