622.1074481310876 1286.2538350140637 -1.7086323048321788
622.9282463789858 1287.6601642453952 -1.711823138871864
622.1351328305885 1285.4082820366896 -1.7105130119684304
622.3100835596315 1285.3508140314173 -1.7119024180845486
622.4865718018843 1285.296824780139 -1.713296124580154
622.9866005905282 1285.9753411691213 -1.7155938358117169
626.7424356147142 1294.0224592220218 -1.7269938434711207
628.5556026373071 1297.669024091356 -1.7329703962337248
628.7321208689948 1297.61126422371 -1.7343718081392012
628.5879350811417 1296.8282959583416 -1.7348754029646898
629.4142209489795 1298.2396160719657 -1.7380963291757325
630.2514186402301 1299.6746984366703 -1.7413496154093764
630.7598182850352 1300.3660396328078 -1.7436828813380316
631.2677907416218 1301.0559567875641 -1.7460158608134293
631.4457671874021 1301.000333287815 -1.747423660443303
631.623745517883 1300.9447091990305 -1.7488314749813867
631.4709003846654 1300.1425837059728 -1.7493099856042136
631.6487951243477 1300.0869882385969 -1.7507171339792649
631.8271684829078 1300.0324672705372 -1.7521256377485201
628.7225757253539 1292.5767435376063 -1.7442985953030075
628.5669257596666 1291.771657919894 -1.7447625376771043
629.7219615501359 1293.920069760514 -1.748916336291586
631.8770200065095 1298.3195607946552 -1.755890115928139
632.0542622845294 1298.2629192506427 -1.7572945852502357
633.2251621183906 1300.4430007388341 -1.7615011423443434
630.7601990575106 1294.439861720102 -1.7554524663258917
631.2669062829375 1295.1255099758184 -1.7577846991001707
631.7736505780445 1295.8107873506603 -1.7601179385010823
631.9511181834047 1295.755306359669 -1.7615217459892278
629.8290486218506 1290.5313966046647 -1.7564253748770966
629.6866475774001 1289.758755549613 -1.756921474208582
629.8587139990499 1289.6929110441083 -1.758306487309028
631.3417635471566 1292.5709474473879 -1.7634026186052552
629.8874171007299 1288.8531279010183 -1.7601831616878485
630.0611659023394 1288.791278257142 -1.7615725064057415
629.2712023723909 1286.567327891143 -1.7602298810165848
629.4427138092636 1286.5011130191062 -1.7616115839537088
629.6138982678779 1286.434166936181 -1.7629923552563014
630.4317092706704 1287.8166210028219 -1.766208819518397
630.6083015714738 1287.7613591652766 -1.767605811348858
632.429026175845 1291.389146807363 -1.7736747383441411
630.642221786151 1286.9358468486103 -1.769492180115094
630.8187332859233 1286.8806060172453 -1.7708885412390032
630.9947328371843 1286.8242146699497 -1.772283454948763
631.1722524143139 1286.771220215923 -1.7736827041039191
631.9992281003844 1288.1708826606791 -1.7769318057856367
632.1778407499804 1288.1198815334503 -1.778335064990472
633.9996210797058 1291.7419889929147 -1.7844229660435644
634.1767726216418 1291.686599314335 -1.7858242882872446
634.6847452164412 1292.3702716607163 -1.788169668240755
634.5305878962989 1291.5747162083255 -1.788625568464056
634.0462738870493 1290.0424649334275 -1.7881375555950285
634.226852477256 1289.9951511818163 -1.7895478239601061
634.405960111304 1289.9445456264234 -1.7909539059104418
634.5818733372794 1289.8868067887108 -1.7923508658830656
635.4159802568664 1291.2968357903408 -1.7956313670732698
635.9245960416397 1291.9803507916797 -1.7979817479656504
633.7932461140293 1286.7798425016485 -1.7927712626978405
638.6129521398435 1297.0692698000655 -1.8074740857846336
638.7918036894827 1297.0158265482344 -1.8088839354426796
638.9681074725573 1296.9567042513454 -1.810286489320731
640.151089015027 1299.1384159755926 -1.814577878837781
640.3287788519584 1299.0816983867867 -1.8159857616229829
641.178168433456 1300.5192618794454 -1.819322993945434
641.0208899904114 1299.7171292243943 -1.8197692022696401
641.53233395013 1300.4022077026589 -1.8221370946994284
641.0398597732835 1298.8555011688693 -1.821618300310547
640.885403474073 1298.0607478070756 -1.8220704285294005
642.0689185424362 1300.2384566276369 -1.826373655196278
642.5837146368773 1300.9298459103838 -1.828753452431556
642.4267567733934 1300.1295175275081 -1.8291984151147744
642.6063965645507 1300.0766390461229 -1.8306128892546667
642.7843371014951 1300.019984060569 -1.8320224752096692
636.9456704803388 1286.6187530666184 -1.8160706476026007
636.7958835694781 1285.8394282055826 -1.8165261789445708
637.3013533133955 1286.5129915772206 -1.818873386441794
637.1502655393424 1285.7312076438589 -1.8193243178157559
637.3254775550748 1285.6727052649148 -1.8207176823914324
639.1574131038375 1289.283231385836 -1.8269026051974606
638.336935558044 1287.0191995822884 -1.825417132813925
638.514253509448 1286.964911270561 -1.8268174812606617
639.0244379501736 1287.6471313079396 -1.8291818680722827
639.2009054956425 1287.5907305783805 -1.8305802118450174
639.3768938876574 1287.5332662142973 -1.831977174753888
640.5542339768483 1289.6894384232996 -1.83627815137379
639.0825906890094 1285.9900549482945 -1.832896003481551
639.9086912541898 1287.3693190724046 -1.8361792281721705
642.760349520393 1293.2215020023382 -1.8453464438670153
642.9375300872293 1293.1648817337025 -1.8467504211031383
641.7751881565567 1290.151468648433 -1.8442608804235192
641.9524993286692 1290.0960128827423 -1.8456634975080988
642.1342057035076 1290.0502483342539 -1.8470789107927317
643.3136464461326 1292.2048422037608 -1.8513983339771016
644.1623148819793 1293.6288542591985 -1.8547572167780118
644.3415239534229 1293.5764571150403 -1.8561675954693442
644.5188146681857 1293.5198264568194 -1.8575723962555912
645.7077300623904 1295.6915281315305 -1.8619269160610088
645.8867266253353 1295.637980109232 -1.8633380308190226
646.0647775265 1295.5823442988385 -1.8647463976334961
644.2199988999067 1291.074946215461 -1.8602486527421433
645.0696586689501 1292.498236894393 -1.8636161941853402
644.9124328136992 1291.7060515378864 -1.8640430348428936
645.0900321584965 1291.6505106357606 -1.8654479216002073
645.2666939473091 1291.592904155838 -1.8668500754010324
645.1070763128062 1290.7963280971458 -1.8672681992568982
646.6349405407884 1293.707285169549 -1.8726256401070032
645.4616390338892 1290.684259718595 -1.8700752957994382
645.6396393683489 1290.6297974604022 -1.8714809638452152
646.1537922625945 1291.3131368427971 -1.8738720560836555
645.9946808233 1290.5187522594078 -1.8742895185230282
645.8347762806675 1289.7230634052937 -1.8747037893660945
645.6759764696353 1288.9302332572822 -1.8751204369812058
645.5197357333798 1288.1434475925166 -1.8755437372060442
646.032103501486 1288.8224092424523 -1.8779305090757248
646.2108970336857 1288.770088240674 -1.8793377075166973
648.0755319028159 1292.410237442501 -1.8857021727917527
647.9138921482532 1291.6113800327569 -1.8861100862158082
648.091132525843 1291.5547633745996 -1.8875144922722598
648.94606062696 1292.9811494206356 -1.8909142910603691
649.4638828260574 1293.6691687917018 -1.8933228381996514
649.6418828307808 1293.6135391389882 -1.8947308217792056
647.7911853529453 1289.1223954155173 -1.890157657463135
650.3379285556014 1294.2455149277132 -1.8985498037337152
650.5160162326969 1294.1898419444574 -1.8999585124348073
650.0135117574474 1292.647454863969 -1.899358025841991
650.8727028282248 1294.0795983108771 -1.9027774677663842
651.0503180329556 1294.0228794218665 -1.9041848091034694
649.8689302434075 1291.000145524708 -1.901574941109061
651.7479274152937 1294.6564464878497 -1.9080120297228973
652.2669858702372 1295.3442482364135 -1.9104300206269613
652.1043059814192 1294.5450406760747 -1.9108310472606718
652.6235549686305 1295.2328074384143 -1.913250496513058
651.0970947771527 1291.4620053153947 -1.9096105682919529
651.2744477544896 1291.4053447998758 -1.9110158822235803
651.7932232467247 1292.09228621432 -1.913433518725924
652.3145859310808 1292.7844160839047 -1.91585971249782
652.4947746179565 1292.733473747633 -1.917274343460349
652.672755412288 1292.677719495325 -1.9186824344066622
652.5057572682854 1291.8714986416298 -1.919065908556945
486.022412018642 929.3707517726183 -1.4252577163991873
486.3535306506353 929.7554151792169 -1.426907624673504
486.4881068881031 929.7126466105211 -1.4279735350969531
486.62189984951436 929.6681729460786 -1.4290371214237894
486.55898296954996 929.1964102352117 -1.4295152055050835
484.9354249511662 925.3359254298332 -1.4253455554711536
485.26388605742477 925.7153017413293 -1.4269865896363854
485.00953145125214 924.8295741804423 -1.4268911463917107
485.33715243645537 925.2069964731825 -1.428529936342727
485.47083635827806 925.163525713915 -1.4295907364947311
484.6316411664133 923.010540038904 -1.4277483329550478
484.38166171436524 922.1360281227625 -1.4276625129170384
484.512717724477 922.087722904861 -1.4287137560917813
484.64425050339526 922.0404508283071 -1.429766423293927
484.7772100994189 921.9962685542351 -1.4308233562467763
484.9105382730686 921.952882131559 -1.4318813957242469
485.43296217802236 922.7516835487731 -1.4341035219877654
485.56744952524036 922.7105517069728 -1.4351655346205234
485.70133665270345 922.66811748415 -1.4362257579256834
484.278839184396 919.2598941421917 -1.4326237401891149
484.02727346363025 918.3851238242693 -1.43252687015206
484.35286914578415 918.7582554861766 -1.4341594160236468
484.2913272568637 918.2946682436898 -1.4346312901523675
484.0373469097061 917.415655327603 -1.4345252426995216
483.59362276114075 916.1274026458503 -1.4338486337898075
484.11026357612474 916.9130653793599 -1.436054692045957
484.4362636604569 917.2868135505627 -1.4376889616797826
484.5687279649928 917.242764848361 -1.4387420190001876
482.3928095881539 912.2198996047272 -1.4328539312023736
482.5261421208445 912.1791836557685 -1.433906700056582
482.65863334701214 912.1366502417452 -1.4349569449191222
482.9813055542923 912.503942172695 -1.4365797753452512
482.34629135352304 910.8078420989649 -1.4353185689677161
482.66958080418755 911.1765822624974 -1.436943023217225
482.22756555512245 909.8973476259698 -1.4362609653828144
482.5520522970251 910.2686599718648 -1.4378890400273008
482.6820846211516 910.2213045291097 -1.4389309352246187
482.2406632483296 908.9446716296703 -1.4382480405213869
482.37204007866575 908.900568533591 -1.4392932787239943
482.50447965277635 908.8587483062081 -1.4403417309916904
481.8737821069034 907.1767549581316 -1.4390839809639147
482.95969570934227 909.1840590259269 -1.443014093441036
481.9462129935331 906.6806847976305 -1.4405969437686394
482.07761280659696 906.6372210651188 -1.4416410800055814
482.3990493629633 907.001711799054 -1.443260465138053
481.9615155959352 905.7371380269725 -1.4425819648789684
482.2821153763991 906.0998282449456 -1.4441988253918794
482.79450145914006 906.8736286328398 -1.4463974223204445
482.35360571893864 905.6029122405671 -1.4457066115978137
482.2942424467499 905.1507584847207 -1.4461716647806497
481.47686629099053 903.0744561167313 -1.4443360509843615
481.60659287875916 903.0283444179812 -1.4453732479887549
481.9273709101172 903.3914065999634 -1.4469906692992254
482.0596788206008 903.3507007279629 -1.4480359491829518
482.19006006261975 903.3058671671389 -1.449075380450381
482.32107616336106 903.2623907422031 -1.450116744825948
482.2621166740139 902.8125179764372 -1.4505802123221656
480.120407331154 897.908782994239 -1.4447049497256899
480.25076050262743 897.8654231509101 -1.445741250212052
480.3820356603395 897.8240318069769 -1.4467803629149216
480.5127013554044 897.781335003466 -1.447817625027028
480.64311027022836 897.7380872375476 -1.4488541093163576
479.833475619551 895.6874290301976 -1.4470240089206072
479.96197381380006 895.6406844296123 -1.4480535082436177
479.72137897295926 894.8062235287975 -1.4479565732524406
480.0351749032039 895.155054761058 -1.4495513551536305
635.6420297358261 1282.05501515668 1.4211367205153351
636.145662841606 1282.6663306717894 1.4204071740109612
636.6492924791929 1283.277244197145 1.4196760198909146
636.7993176359901 1283.177041296857 1.4183142053822735
636.5940648020916 1282.3629432160787 1.4163211245227671
634.6184346063968 1277.992837025435 1.4111880146018052
639.0288829203572 1286.4501208366985 1.4173824263534698
639.180410789221 1286.3519354234845 1.4160192194453316
639.3311848612636 1286.2522303642784 1.4146546530342903
639.4808050553938 1286.1502040879816 1.4132880257794227
639.2739832896004 1285.333119821904 1.4112928319064508
639.06271045978 1284.5074954353197 1.4092913664943012
639.2076797731033 1284.396524072602 1.4079180986570918
638.6626629240261 1282.9025165225912 1.4053327169576164
638.8088065791491 1282.7942774238188 1.403963046044737
638.9543699135969 1282.6848747230347 1.4025923541139491
639.4531708616228 1283.2829350354689 1.4018398480279757
639.6012219123667 1283.1783192235512 1.4004727171640639
640.4605199726275 1284.4974055191155 1.4003471433277923
640.9685632044825 1285.1127950412533 1.3996060230488183
641.122582255214 1285.0195240453002 1.398246872146558
641.2699895054366 1284.9130197203397 1.3968761857368577
641.0575574904816 1284.087008906577 1.394880537115455
640.1355013518018 1281.8428717425027 1.391655599202636
639.9320306586873 1281.0359385325182 1.389680214132568
640.07857399448 1280.9286713304798 1.3883119376279751
639.869834574589 1280.1117846863237 1.3863297593902644
642.5241696238081 1285.0122355188805 1.389289943121014
642.6739871863628 1284.910326667288 1.3879225347837405
642.8217178333565 1284.8042483402585 1.3865515155430899
642.6121622672799 1283.9853269843652 1.3845662868079103
642.7599918768893 1283.8796358663894 1.3831962070109398
643.2689400069669 1284.4940358265624 1.382445311219783
641.9827413140614 1281.5293784223218 1.3786187109537877
642.1318599179326 1281.4268320675887 1.3772531701177968
642.2825146695428 1281.3273422284653 1.3758902362391723
643.1491885191549 1282.6540777274997 1.3757486931010021
643.2979492725254 1282.5504157547603 1.3743809087600312
644.1669806150715 1283.880667607418 1.3742386052676352
644.3169170680394 1283.7789474898966 1.372871204806927
644.8258917996955 1284.3916078050113 1.372113086883985
647.8721886879019 1290.0510553097233 1.3756537259035326
645.4859779729754 1284.9040871264478 1.3699863241961339
645.6355528162435 1284.8012395049752 1.3686166559879211
645.4244396762269 1283.981502001047 1.3666380394411703
645.5739319114696 1283.878677185584 1.3652689898607946
646.8075635313763 1285.9294567110046 1.365725463396359
644.7907789167562 1281.523968785148 1.3607110445980766
644.9395416529749 1281.42026837719 1.3593430918072045
645.0893368112108 1281.3186135843569 1.3579768561530727
645.2386383262697 1281.2159745554343 1.3566097745577395
645.7480987218645 1281.827802127008 1.3558451871838884
645.8980003201679 1281.7261504232715 1.3544782860856799
644.6062188831309 1278.7660893935074 1.3507058791463464
644.4012905901417 1277.9618812243773 1.3487508258132834
644.5510385595475 1277.860879735401 1.3473875392860464
645.0546889369705 1278.4609780635144 1.346612407181624
645.2038816865999 1278.3586763774788 1.3452473859869087
645.3530485930906 1278.2563192666253 1.3438823047018218
648.7568193472339 1284.596290412417 1.347904931961068
648.9053677068679 1284.4909491140743 1.34653169230495
647.2432666323444 1280.8034597581918 1.3421689617458128
647.032851878253 1279.9891155665828 1.340207761868328
647.9027373488148 1281.3112322640843 1.3400270372997625
647.6902209716018 1280.4929183124311 1.3380631298645085
648.2022941482131 1281.1069417960182 1.3372908028833308
649.0765959489408 1282.4362227682127 1.3371109932750187
648.1391220119119 1280.1861885053213 1.3339603512739018
648.6495982015244 1280.796461738656 1.3331829923804435
654.6462518892948 1292.2364937184686 1.3413664600460038
654.7968846519229 1292.1328765002158 1.339986933421244
654.9469512810266 1292.0281381392786 1.3386064675483453
654.0059506852822 1289.7712969578722 1.335450692601114
654.1547451425581 1289.664627103384 1.3340704993328814
654.303249427961 1289.5573827927187 1.3326898254057369
654.4497735502264 1289.4462337468444 1.3313059339012625
654.2348663679205 1288.6229453839107 1.3293370878909627
654.0152990560623 1287.790864004843 1.3273622767159736
654.1634661992374 1287.6833393678191 1.3259826137381197
654.3137647322784 1287.580008969761 1.3246063787792082
655.5650148573528 1289.6435605007744 1.3250024106024512
654.979849965667 1288.0924921326002 1.322441420780251
655.1307650021103 1287.9901669719013 1.3210653343482477
655.2837811056851 1287.891969018368 1.3196925973214206
655.0740753816078 1287.0806312710165 1.3177390697155147
656.3188023665921 1289.1283997695934 1.318112664560374
655.7393786508107 1287.59055259315 1.3155687064644326
655.8887131170044 1287.4850961688012 1.314189992987167
656.0353304455764 1287.3743004393928 1.3128069401871585
655.4502624139592 1285.826915653818 1.3102602670263082
657.0721270887259 1288.6122204681176 1.3112217368457664
657.2216443804033 1288.506719632354 1.309841678817179
654.4396097958482 1282.650091554774 1.3038184371334864
654.2160874881398 1281.8145104978294 1.3018546291781945
654.0009432274369 1280.9957491690507 1.2999056462790577
653.7893543135584 1280.1843404964532 1.2979638260723618
654.3016360345746 1280.7918646048452 1.297163821660206
657.756073218934 1287.1631164876528 1.3009905453920396
655.6971787478961 1282.7323531296815 1.2961418753100702
655.853781529077 1282.6420645885746 1.2947783585599382
656.3708281454043 1283.257354420952 1.2939794872649486
657.250318810236 1284.5815643844346 1.293746068925941
657.4023429489323 1284.4817109013795 1.2923729385172464
656.4586658876103 1282.2386938080533 1.2892902554843886
656.9695025525222 1282.8410443263338 1.2884784810785845
656.758030004504 1282.0309587710165 1.286541283730628
656.909492600774 1281.9305654791783 1.2851695416158577
657.0532627850193 1281.815136707129 1.2837858408261127
655.7353680747772 1278.8446024664963 1.28013730238348
655.8827376218071 1278.7369792755158 1.2787623201296583
656.0295009740113 1278.628171026171 1.2773863946766255
656.1769266251855 1278.5206544522089 1.276011487304629
656.3278408449733 1278.4199431666252 1.274641948883982
656.4770132966319 1278.3158288978948 1.2732697085867244
655.8999220615553 1276.7953799728443 1.2707814280420848
656.0484477937085 1276.6903804131964 1.2694097179536925
661.7318022002296 1287.373355258059 1.276519553935998
660.026883356448 1283.6538489087152 1.2722997501703617
660.1791841557173 1283.5542575480065 1.2709259202480325
660.3284056931501 1283.448663060069 1.2695473663445682
663.0789488380656 1288.4078480199953 1.2721328686562288
661.3695828283528 1284.6831807975643 1.2679204683270768
661.5242385724188 1284.5877620414403 1.2665485547873914
661.6735777168349 1284.4819917420316 1.2651685390315492
661.8206333915188 1284.3717774190345 1.2637850512746809
661.2328719706144 1282.8328004777172 1.2612896198335193
661.011925085105 1282.0076275603471 1.2593516034122558
661.1606104776114 1281.901157041922 1.2579729129578254
660.9517635771156 1281.1000685817573 1.256055466720568
664.811009773337 1288.2007324456636 1.2602608766777053
664.59109551318 1287.3767675616984 1.2583211804586654
664.740937127147 1287.2709694731836 1.2569378515740368
664.5153597822451 1286.436588822044 1.2549919996981203
664.292855745481 1285.6085606962586 1.2530523262202564
664.07164600664 1284.7834293651686 1.2511161526324486
664.2223513032611 1284.6798787647522 1.2497364340794093
664.3719969378848 1284.5742697312448 1.248355119928874
664.895996964707 1285.1941928164727 1.2475307427018265
663.185240287177 1281.4837132164273 1.2433847182298905
663.3356334527178 1281.3803186069106 1.242007620191714
664.227852568062 1282.7134891676815 1.2417294554111322
664.3794587598277 1282.61204791202 1.2403525501186436
663.7885595441725 1281.073490598317 1.2378788060056536
663.938507077781 1280.9692163402149 1.236500980227902
664.4590768289452 1281.5818873876317 1.2356690515873083
664.6079429222169 1281.475321447669 1.2342888233148415
670.7709514202156 1292.9965298161903 1.241741794724419
669.7882149327611 1290.6995719807423 1.2386892187475382
669.1867580190091 1289.1405613495417 1.2361998018877784
668.5848829672939 1287.581521621051 1.2337129303853658
668.7328012855834 1287.4713558068759 1.2323241446981683
668.507780164844 1286.6411154074258 1.2303915349555155
668.6588933468291 1286.5373087150342 1.2290081801632482
668.4345515123865 1285.7089567987234 1.2270788998191051
668.210964618839 1284.8824468139876 1.2251522782684674
667.9854768575506 1284.0526550240008 1.2232244594900976
668.1363782784277 1283.9490075708293 1.221843099077205
668.2878244535609 1283.8464060820208 1.2204625093070263
668.4387598327124 1283.742815482611 1.2190811630884468
668.2161135008239 1282.9194565806451 1.2171613254527074
668.7401183828244 1283.534635145706 1.2163176825452524
668.8934866628427 1283.4357171119298 1.2149397830614248
669.0468603220281 1283.3368027386223 1.21356186415494
669.1985925106902 1283.2347225135886 1.2121815658829291
669.7224512836884 1283.848635441405 1.211333722594759
673.2742762847776 1290.2866178700042 1.2148106689732572
673.0462513511 1289.4522869304062 1.2128806084970734
673.9552709705978 1290.8043371289953 1.2125719731907907
674.1086546306796 1290.703264534164 1.2111852409398693
674.6393751417679 1291.327235118321 1.2103344666948033
672.5167240087587 1286.8537514879035 1.2057187010787516
672.6703363867597 1286.7540792914037 1.2043361893674955
672.8229011094273 1286.6523891924487 1.2029521698977987
673.7254372304857 1287.9902102998226 1.2026271449483374
674.6376371345287 1289.3457977077755 1.2023125930857077
672.5145099713776 1284.877629274568 1.197721407869949
672.6670728479371 1284.7763082705328 1.1963388965063473
672.8184959114725 1284.6727963054448 1.1949547627838228
672.9698187702893 1284.5690879200338 1.1935704710056712
673.1203623412074 1284.4638819154347 1.1921850713883373
672.8951008522607 1283.6386943766786 1.1902744774643566
673.0464554909018 1283.5352279310255 1.1888909641130567
672.8263947591294 1282.7205703080772 1.1869899334011507
672.9767116857955 1282.6152992851517 1.1856057137987364
673.1237704282461 1282.5037894877848 1.1842169545201386
674.4052171718665 1284.5626624469653 1.1844016822363415
674.1767390886746 1283.7322629681037 1.1824904466180897
674.3285223634857 1283.6293988407722 1.1811066449361078
675.2379135717083 1284.9748689636363 1.1807689665238286
675.3898555524182 1284.8719109501774 1.1793837733444548
675.5417896232249 1284.7689331277224 1.1779985502392947
675.313717960391 1283.9400670775824 1.176090942607459
675.0847968645185 1283.109962818989 1.1741837256011536
675.2365859453006 1283.0070830438995 1.1727998235006112
675.3873110513057 1282.902167827756 1.1714144464846754
673.649844806873 1279.1943026031363 1.167449146962383
673.4253224302824 1278.374508500323 1.1655557108023231
673.5717673764611 1278.2625748776782 1.164169142856224
674.0960394722239 1278.871012815214 1.163296470763953
673.8695458585362 1278.048026831047 1.1614026501526382
674.3978597999899 1278.6637798051984 1.1605338894951842
673.4301345652293 1276.4290598959617 1.1576380183934702
673.5813014861843 1276.3264918803923 1.1562593430306265
673.726116384103 1276.2118245731242 1.154872075013202
681.4969287361785 1290.613694870652 1.1637626635392735
681.6527996593261 1290.5161913905888 1.1623745582649576
674.5499344261958 1276.608632788613 1.151233483569058
681.9567420578695 1290.3063259127885 1.1595877882264176
681.7299297153079 1289.4811209205468 1.1576870016730822
681.8809685209384 1289.3745982836772 1.1562931099110187
681.6578766755148 1288.5570338836385 1.1543996014496543
681.5973485643138 1288.0487176047925 1.1527243693365676
503.6856188598054 934.1227133854702 0.8510781789501038
502.45073595232674 931.5131164861697 0.848364174398796
502.5679180211663 931.4364353105115 0.8473069126377482
502.68112731635114 931.3523129804596 0.846244788195122
503.02092187623987 931.6922179488349 0.8454584825082634
503.35928556962955 932.0292202496411 0.8446695229926604
502.5735108957058 930.2634205405728 0.8425157707102358
502.69081126936163 930.1871674262825 0.8414594908126105
503.254227344443 930.9448775191338 0.8409426561099735
503.14468850306264 930.4444532343947 0.8396115917161069
503.2595990983587 930.3636120033664 0.8385519327800353
502.70111874255554 929.0249336721632 0.8366820266578543
502.81587949560105 928.9441413846117 0.8356235205603184
502.9298421868503 928.861856832424 0.8345640479114422
502.82392318171946 928.3691777390337 0.8332413268224172
502.93882657095344 928.2887541312409 0.8321834068711382
500.5844863052949 923.6021092449378 0.828179203329455
500.2598799857661 922.7032407401191 0.8266026742231816
500.37122591785857 922.6176141978417 0.8255463202061151
500.7041555336238 922.9450100553986 0.824753027457291
499.93322473430817 921.2151867933034 0.8226505795192907
500.4868747597629 921.9538857964408 0.8221188766164573
500.3799667475585 921.4618765307459 0.8208051705346406
500.71670439704326 921.7961426426415 0.8200154752894946
501.0521483007626 922.1277785858022 0.8192233575650789
501.1663346920872 922.0474349562256 0.818170328756139
501.281564262951 921.9690298191383 0.817118514278377
501.17332878384354 921.4749741385265 0.8158049670994956
501.28748772768165 921.3946814187842 0.8147523195102053
500.7362308579329 920.0773614647034 0.8129229925284562
500.85070810581175 919.9979829411063 0.8118720237503112
500.96311334179114 919.9147517441834 0.8108186334876564
500.63311063658557 919.0097248441188 0.8092515097987985
500.3009911924505 918.1012010476857 0.8076836918682488
500.4141766891098 918.0198518466394 0.8066329615498375
500.30926579440074 917.533697344797 0.8053302706645695
500.86349579803067 918.2708477792412 0.8047885955519973
500.9786540448478 918.1930438011117 0.803739672529332
501.3149676875749 918.5253921114596 0.8029449030283331
501.42704479111865 918.4417597809102 0.8018919765625583
501.5421710865453 918.3637790018298 0.8008425402849184
498.7743271881173 912.943262940481 0.7964969527045014
498.88712930184204 912.8623810900151 0.7954505590210488
498.3404022637369 911.5599470360922 0.7936527282898851
498.2335501266389 911.0726581158552 0.7923578030614635
498.3456847849289 910.9909655162164 0.7913123738634908
498.24156672726417 910.5090553799 0.7900218400986319
499.0132714873121 911.6478020168719 0.7897230750407402
499.12713983591556 911.5690958951599 0.7886787106173756
499.24045618559694 911.4893661465497 0.787633712254376
499.57333382122823 911.8155444680831 0.7868358145799448
499.68613769474655 911.7347557460623 0.7857897872395938
499.13939155108943 910.4352764572646 0.7840040571117584
499.03286831026236 909.9496493830246 0.782713774274157
499.1460613399622 909.8700024829839 0.7816698972713425
499.6978980168836 910.6002190379605 0.7811153557667012
499.81235816042954 910.5226926845543 0.7800720048159064
499.2641892790112 909.2223993851277 0.7782920367058068
499.5970655418396 909.5481302664174 0.7774923338083681
498.82895597115316 907.8430440161222 0.7754722024149032
498.2860882366559 906.5541275766632 0.7737045916822467
498.18025011171443 906.0714562677467 0.7724219279796785
498.07450031082334 905.589158067693 0.771140214319189
496.0015053166424 901.4826107349675 0.7676957611428747
495.89499435828543 901.000286157441 0.7664187887215803
496.44197895794406 901.7215396417304 0.765858815241188
496.55739054836835 901.6478659807498 0.7648250232671217
496.66951685302257 901.568140712793 0.7637876230353413
496.7795331774098 901.4845311553116 0.7627479149824694
496.89144869963155 901.404415229175 0.7617102735576964
496.7889051575128 900.9299057227524 0.7604397138374566
497.1174709807978 901.2482067110395 0.7596373446687608
497.2303036428482 901.1697701593737 0.7586006698924734
497.34230790042545 901.0898087159715 0.7575630895581753
497.45598306446635 901.0129149960851 0.7565273032765276
497.57106500447287 900.9386014774443 0.7554930169573026
498.1173228491907 901.6559667767795 0.7549219094394175
498.2315446941913 901.5798564026846 0.7538858168466049
498.3458520408804 901.5038990261985 0.7528497999201704
498.4599078202519 901.4274761205625 0.75181349804501
499.00279003774347 902.1375906427991 0.7512344961425015
498.68700722718455 901.2727631050499 0.7497397713427176
498.7974078033496 901.1896287174495 0.7486995421921847
495.85739738343597 895.5159325048592 0.7444241481224481
495.96874992479303 895.4360124543468 0.7433908866914862
496.08071656276815 895.3572156037183 0.7423582673490614
496.19169965140054 895.2766153319689 0.7413246014548918
496.73607689610895 895.989470384262 0.7407471873893883
496.63097016258484 895.5131463117267 0.7394855974307575
496.7433602277008 895.4350120532381 0.7384529672925169
496.8566786534878 895.358573461955 0.7374212983839925
496.9685390525661 895.2794648020637 0.7363880916222456
497.29598111556675 895.5945217707845 0.7355797286434154
496.5399854014994 893.9289412578153 0.7336425984785251
496.651000540678 893.8485948663258 0.7326097576949451
496.33059352338745 892.9800599364347 0.7311294565450339
495.36144287105964 890.9270262464283 0.7289792385647615
495.68738164833155 891.2398494675551 0.7281713948977426
495.5833918364386 890.7676251925045 0.7269193117165287
495.6952957242832 890.6896183871852 0.7258902949817525
495.59382227330894 890.2222907651144 0.724642035410568
495.7049987346489 890.1430542218761 0.7236126665237066
496.67843353556844 891.6362259411679 0.7234658607474671
495.7122657725047 889.5924488860414 0.7213341706341225
496.46930624509645 890.6904859072702 0.720963768619697
496.14861276429514 889.8240998320176 0.7194940037628044
496.26014252688697 889.7454980412081 0.718464957880542
496.37094838510444 889.6655756640091 0.7174351691035099
496.26796907307886 889.196407615279 0.7161890398097626
496.1647728077855 888.7270473598078 0.714943513169942
496.27619276896024 888.648442208383 0.7139151530411709
493.38211721272654 883.1019568157117 0.7098629031270889
493.7035508033595 883.4067574216901 0.7090512306719461
494.0284364323672 883.7176319833906 0.7082421949515947
494.14046570722957 883.6413567349657 0.7072193994703753
494.2513746257221 883.563042159629 0.7061954724412658
494.3604937851629 883.481473616125 0.7051697533343599
494.04354385885233 882.6259784969693 0.7037202970039971
494.1547847105225 882.5484648163773 0.7026975026403761
494.2649035891857 882.4689116888628 0.701673586539755
494.3753939922447 882.3900314235126 0.7006500318722715
494.06077322530933 881.5397722169425 0.6992069669203147
494.5967755077134 882.2329923746858 0.6986032951869561
494.4956237534599 881.7702765333715 0.6973716831921024
494.81993399485657 882.0791671712242 0.6965582693666761
494.7169516610318 881.6133295352818 0.6953256611438974
494.61258084176035 881.1451765848004 0.6940925103345421
494.72370990679997 881.0676427285189 0.693070346199363
494.61976369972956 880.6005606061995 0.6918388320752342
494.5162381820837 880.1344416947047 0.6906085433312228
495.05504929680836 880.83131921205 0.6900018080993391
494.95201834588704 880.3661928281433 0.6887723930285006
495.0638070003248 880.2899423663736 0.6877512306613767
493.89335603653296 877.8943250546874 0.6854943227033914
493.7923573163048 877.4338779270295 0.6842709335518293
493.90136019402473 877.353288904839 0.6832499261753355
494.0105152360926 877.272974148503 0.6822290614923077
493.69750922828365 876.4298362279794 0.6808045817667221
494.23015210284484 877.1147387271798 0.6801885870967226
494.34095303977057 877.0373931268476 0.6791692761747754
494.4517520003148 876.9600415031999 0.6781499534221211
494.5628926350893 876.8833041693434 0.6771309447747171
494.67371370197776 876.8059873752636 0.6761116224187163
495.2098549915681 877.4959940708196 0.6754940375875549
494.25529829333476 875.496911701207 0.6734695877349282
494.36464938261537 875.4172385511365 0.6724500754688734
493.839530318219 874.1938051433663 0.670834889669436
493.94962260507145 874.1157642347588 0.6698172736302581
494.0591995601934 874.0367928251919 0.6687991676421348
493.95763427958224 873.57749210382 0.6675840348294741
494.91644696193714 875.0279348984413 0.6673571370238847
495.02583333063615 874.9483157530997 0.6663376189869155
494.49773984645236 873.7213104864938 0.664726898020433
491.4356833530935 867.9352738815918 0.6607734346981147
491.54270760438664 867.8531910570169 0.6597589741170964
491.6516853147028 867.7746218075615 0.6587463154029365
491.76063439668644 867.6959995937034 0.6577336243132663
491.66194873813964 867.2441465739814 0.6565303435309602
492.18902089204096 867.91701079733 0.6559010270819954
492.29867419297943 867.8395506922662 0.6548885617891642
492.4087214772514 867.7627961446374 0.6538764474278764
492.5194805131393 867.6873172034013 0.6528649710148215
492.4203172207141 867.2349857774823 0.6516627930051868
492.52874328412446 867.1554118653359 0.6506495749918599
492.63867255411606 867.0785341125732 0.6496377128340214
492.9570412499388 867.3755485965572 0.6488139964496895
493.0667434912913 867.2981614797795 0.6478015153337537
493.3882618185675 867.6005257433676 0.6469794259766672
492.4430093766911 865.6321577388923 0.6450202319461482
492.97244348362875 866.307280262781 0.6443850264623734
493.5047790997039 866.9872063761102 0.6437508141066814
493.61517001374017 866.9110424177189 0.6427389053102388
493.72555914493995 866.834872507811 0.6417269837416484
493.835951124958 866.7587049412653 0.6407150535277424
493.94528420551075 866.6806396347095 0.6397021743248956
493.2083134760982 865.0884407646291 0.6379413613885276
493.1075356519365 864.6349523810919 0.636744776683031
493.21666162510724 864.5570035207382 0.6357336887307383
491.8545949896252 861.8489813509573 0.6334307523912344
491.96292893955683 861.770298246661 0.6324217325163204
491.8616920137146 861.3171561633189 0.6312294759843553
491.76051839774595 860.8643208653856 0.6300380599401478
492.70903304664847 862.2862681136847 0.6297612314660341
492.39724883939436 861.4573101960731 0.6283864566465809
492.506752528829 861.3807082166072 0.6273784232273556
492.19802686441096 860.5577906708534 0.6260086553516544
492.30538825462696 860.4775563254028 0.6249995412892417
491.7888693301124 859.2846117955555 0.6234531820191478
492.31275075342603 859.9473491090353 0.622803133362936
492.8421676236964 860.6195670503469 0.6221562622018268
492.9519339460479 860.5435173889992 0.6211487951002823
492.01560705220595 858.6036658995251 0.6192483587639117
492.1248786251792 858.5272143716049 0.618242413750977
492.23181868913133 858.4466086754571 0.6172344778246384
492.340582295776 858.3692492337751 0.6162280875199144
492.4483709426142 858.2901526732268 0.615220864748494
492.3499317883464 857.8441013706866 0.6140395345994989
492.4579116383633 857.7654383888564 0.6130328517347152
492.35790569428116 857.3168846706625 0.6118513561784766
492.4652133916474 857.2371203881086 0.6108444897930667
489.6544912873696 851.9705205529863 0.6073960056717169
489.76304542558023 851.8943175020468 0.6063956376944475
489.87176961766284 851.8184143441006 0.6053954023586812
489.9804749696841 851.7424753451697 0.6043951417212838
490.0891736963172 851.6665222218173 0.60339486602237
490.4027179903188 851.9542097438647 0.6025640661327429
490.7191797216403 852.2468837892595 0.6017348995492284
491.24298000143585 852.9072415244364 0.6010757206883
491.35190777913874 852.8313040702926 0.6000740495780406
491.4608942280738 852.7554682418482 0.5990724167633061
491.56946446336997 852.6788920347367 0.5980704334438087
491.8866919142339 852.9721466848528 0.5972387434551933
491.78769786402626 852.5276700106951 0.5960673314035603
491.8961816760959 852.4509339396488 0.5950652504508298
493.25832983205186 854.5945149169461 0.595079366963887
493.3670433151127 854.5176055515582 0.5940751205741321
491.8030750245417 851.4798052916548 0.5917212393974296
491.28898742328374 850.3014976316491 0.5902187331884079
491.601886717948 850.5868866751671 0.5893827233481943
491.70962908936326 850.5092109878462 0.5883815556881586
491.6105512741054 850.0658117469594 0.5872150451976381
491.0976481692524 848.8910191843122 0.5857192449175272
491.20408380071785 848.8114087815709 0.5847185569812154
491.5185446012878 849.0993648839601 0.5838830082741424
491.00666153701917 847.9274127744033 0.5823922263460304
490.9084154443846 847.4865171588106 0.5812305681614021
491.014737144574 847.4069854196413 0.5802309248178972
491.3278879428737 847.6925281802894 0.5793939362151832
492.0598631083625 848.7169585149641 0.5788847783269944
491.95989843316346 848.2731167702402 0.5777221227173186
492.0678314997401 848.1961393641056 0.5767225713296398
491.7616132491752 847.3888970652607 0.5754003815412148
491.6624443235584 846.947021793345 0.5742406296974991
491.97618428236086 847.2330291394438 0.5734017719252051
492.2927506072052 847.5238266198158 0.5725643313547266
492.40094167333325 847.4473892006115 0.5715653258050679
492.3006407389045 847.0037964127216 0.5704058212870109
491.99447602401045 846.1979604063918 0.5690889917536879
492.10196547011526 846.1205657706182 0.5680905745067548
492.2091782833964 846.0426828788986 0.5670919398286287
492.31782562008067 845.9673223294092 0.5660943938100331
492.4256194457218 845.8904581575073 0.5650961883774244
492.1192930191551 845.0854599905235 0.563783785546832
492.22700475733143 845.0086363356455 0.5627862672284891
492.1269959424166 844.5667725032965 0.5616319114187718
492.0273456177829 844.1257255452861 0.5604785839026363
492.1356073687684 844.0500512695571 0.5594822219865137
490.1728340732137 840.3376565997121 0.5569336480629659
489.8693354124566 839.5400573403724 0.555633229744501
489.7705553722817 839.1021272731667 0.5544869951546048
489.6736766498057 838.6677184316363 0.5533429255606279
491.01628521642584 840.7586066407496 0.5532678773588486
491.1245172550454 840.6836191343303 0.5522744889260025
491.231835567808 840.6070270674625 0.5512804154032551
491.34005491369237 840.5320126224988 0.5502869986050314
490.2091245382123 838.2855547691672 0.5483830723491678
491.1403999808933 839.653017135063 0.5479951615106415
491.2485873306253 839.5781273103711 0.5470024537341374
491.3558390990677 839.5015967034764 0.5460090532287154
489.61052643732637 836.1820502526826 0.543668014120783
489.5137583194034 835.7492979109719 0.5425299556481491
489.61823435391875 835.668834779672 0.5415382922762433
489.7250635640146 835.5924882690208 0.5405483295916724
489.8322131028698 835.5167002565257 0.5395585907868394
489.3276940626056 834.3715327235655 0.5381294911965142
489.43560070758116 834.2973400566391 0.5371413977097177
489.5435682331789 834.2232510279143 0.5361533366045705
490.2605317318953 835.2130402598851 0.535599356738544
490.1642408499505 834.7819354973211 0.5344649379708244
490.47542806666786 835.0624857441604 0.5336202162126256
490.5823118332885 834.9862199327009 0.5326302331939701
490.2813102865245 834.1981350584311 0.5313524818222959
490.38633763940356 834.1188105094365 0.5303619227656782
490.0847826248015 833.3303082179896 0.5290860044448777
490.59939439255396 833.9653960221865 0.5283829048071311
490.91239702276806 834.2486417683634 0.5275375476334148
490.8138725268541 833.8144530078513 0.5264048529882643
490.9209704867399 833.7387324829641 0.5254157163159903
490.8221923042528 833.3043749781273 0.5242839534158179
490.930105126577 833.2301620548585 0.523295738461286
491.6537617497395 834.228015698323 0.5227318208070528
490.93866426816976 832.7209500347391 0.5211768251525655
491.0456832113381 832.6452663362743 0.520188341073549
491.1527061010338 832.5695875445161 0.5191998517494767
491.2603149246721 832.4949259076637 0.5182117539786191
491.36734975386094 832.4192636920344 0.5172232558074938
491.4743927008189 832.3436136181542 0.516234755154187
491.37755923860254 831.9136325952611 0.5151083480920988
491.4833914476974 831.835966124457 0.5141193845344105
491.7943350241661 832.1145904841346 0.5132684069000106
491.90136405342184 832.0389088716425 0.5122798670346356
491.80258988182834 831.605915797941 0.5111536101263141
491.7044620372542 831.1742265245026 0.510028522187497
491.81170405981794 831.0990921970781 0.5090408444137893
491.7136208852511 830.6677511832412 0.5079168838292958
490.38610295483164 828.1042787261172 0.5059799091291666
490.4927155330175 828.0287781196865 0.5049947556564689
490.80120217698317 828.3032227318172 0.5041424822896943
490.9081849997277 828.2282699504577 0.503157191489322
490.60627117469016 827.4448603511006 0.5019042048827487
490.71259250386385 827.368939531185 0.500919202927264
490.81919890038415 827.2935106862222 0.49993437975666666
490.9252463913543 827.2171122960048 0.49894918589023973
490.6232139756633 826.4343998225818 0.4976997808619785
490.73005018232107 826.3595448967098 0.4967158206455906
491.0400656573144 826.6361736485743 0.49586266414149804
490.534261196032 825.5016710053599 0.4944849885337135
490.4370429709474 825.0741730244824 0.49337109870896256
490.54376014051905 824.9993761117269 0.4923881318875942
490.6499104327319 824.9235973633021 0.491404795320193
491.7779429400964 826.6133315005466 0.4910701663160353
491.47474777317365 825.8300479317779 0.48982585212962704
490.7646356986948 824.3444533647672 0.4883261479870953
491.0748086624681 824.620978411042 0.4874715679288215
490.16161379048754 822.7858684009483 0.4858484250235051
490.0655994141853 822.3616978485771 0.4847403570350366
490.3735495986251 822.6345628731659 0.48388509683110215
490.8866691980638 823.2610835482931 0.4831567695362651
490.38253333146366 822.1333282798751 0.481795820377215
491.50804447886844 823.8151665843441 0.48144524063184235
490.7994514930307 822.3354304709646 0.4799596114390283
490.9071818233359 822.2628039817284 0.4789789904243662
491.21549459036305 822.5356561290658 0.4781213685527632
491.32123503362413 822.4595080610459 0.4771391452512148
491.42666623446024 822.3828261949363 0.47615672759224026
490.92435462986055 821.2601763694058 0.47480485680733864
491.02871123326327 821.1819114755747 0.47382286602220347
490.9304051217499 820.7550288165568 0.4727184000425382
491.23956237824234 821.0290574764318 0.4718601689119737
491.1420810407353 820.6037700614021 0.47075691682925935
491.45191692884174 820.8787826310142 0.46989835203697794
490.94671511717195 819.7530350874434 0.46855233190780154
491.0527864224215 819.6779801397543 0.46757243280609373
491.56635767210594 820.3028212093374 0.46683441944725246
491.46823402467083 819.8769597179811 0.4657329311816625
490.76046594287726 818.404723271371 0.46427245217313384
490.86559400023043 818.328310416655 0.4632930559789088
490.76899678631577 817.9057799188995 0.462195349306171
491.28166478889995 818.528523719889 0.4614545866253934
491.59115003405066 818.8024695668707 0.4605939306464393
492.3091598200254 819.7766350653867 0.4599699463109914
492.41559436654256 819.7020065122492 0.45898946219773507
490.2828244885252 815.7903081357582 0.4567156808554955
490.3885754122324 815.715486611533 0.45573876873902464
492.1213773427939 818.4273262515262 0.45569579098855684
492.2274222569892 818.3522909261984 0.45471613953509404
491.7218320812769 817.2302377152337 0.4533875702732644
491.62529116198704 816.8087625914873 0.4522937836239862
489.2969896406591 812.5690209956806 0.4499355171298589
489.402440616738 812.4943844416557 0.448961265410901
489.3065526815706 812.0754404615739 0.44787358110079367
489.4122465307784 812.0013034533489 0.4468998076149546
489.3181474300023 811.5856772906701 0.44581418012353424
489.42236141340015 811.5090946341875 0.4448399177105671
489.52802713356846 811.4349911611089 0.44386645934679336
489.63458400206605 811.3624075437872 0.44289348647885163
490.34288631843515 812.3172752976831 0.44225309869159446
490.24664021444755 811.8982344024896 0.4411673028265568
490.14990070543536 811.478525680491 0.44008194225813213
490.0552282354151 811.0625181797603 0.43899842084761076
490.16054568112963 810.9878083760735 0.4380247226861229
490.26448117565275 810.9107401448907 0.43705026553391235
490.7730570292573 811.5235181386078 0.43629516533690094
490.87851802944044 811.4488724675124 0.43532081280824286
490.7815415335348 811.0292778494154 0.4342374243112772
491.0899972863586 811.3005247895524 0.43337238402546063
492.006639704744 812.6073944365813 0.43283202902790663
491.5033356031963 811.4958665071819 0.4315315692012973
491.40666265230954 811.0770451516016 0.43044938216377204
491.5118512044159 811.0019241969438 0.4294748381406066
491.6175950944209 810.9277464334584 0.42850058069507213
491.92590002442233 811.1981074797412 0.4276329095704341
491.8279750520019 810.7775007091378 0.4265514590076691
492.1363609607353 811.0478197631122 0.4256831018496996
488.8140755505356 805.1471934724073 0.4229226030665245
488.9186586738378 805.0724324900499 0.42195337467239824
488.8237574292915 804.658795020276 0.4208809187768452
488.9268810766962 804.5816386587362 0.419911275378297
489.2307738917938 804.8453653350871 0.41904481073083844
489.536831269673 805.1125919418843 0.41817874801256494
489.6409250989756 805.0369060788333 0.417208886608023
489.545142158063 804.6221105355185 0.41613735171347344
489.8513139980085 804.8892645712807 0.4152702657212899
491.1654604904605 806.8654880832776 0.41491164403299763
490.86607336892325 806.1052560997207 0.41373652799632055
490.7705866510216 805.690954225412 0.4126651076987855
490.6781881635895 805.282056606774 0.41159592637222886
490.78303460332177 805.2074593933988 0.4106256847254599
490.8869619635343 805.1313039363542 0.40965497986155697
491.1899494365179 805.3921822537601 0.40878273424152667
489.68537344080823 802.5932274119705 0.40701885813649596
488.9929279490338 801.1700013816244 0.4056594753094487
489.29571402508776 801.431229780463 0.40478993174775724
489.59929239650563 801.6936255601817 0.40392007435565347
489.5063163556359 801.2852847837628 0.4028568292368391
489.8083428606846 801.5448813771483 0.4019855082451613
489.71587621065885 801.1375682226845 0.40092318465372045
489.8202309382619 801.0629885420169 0.399956146036061
490.1226398615711 801.3229706975592 0.3990839523467571
490.02893051573807 800.9138077070055 0.39802204466047897
491.9409834994623 803.8913260593197 0.3979144190333841
492.04623183152466 803.8174712964254 0.3969446275099813
492.151200960843 803.7431432807061 0.39597469574863453
492.2561701315829 803.6688134866324 0.3950047565136856
491.95735344712796 802.9134270717666 0.3938456515064672
489.2504419830894 798.0977502951939 0.39156403455177724
490.35602454477345 799.7116437165305 0.39106493420877086
489.85962830785707 798.6247239707354 0.38982023890423534
489.9638154126116 798.5502749173045 0.38885479753253094
490.2686261293146 798.8137804336977 0.3879815897261665
489.9730401058315 798.0659843522553 0.3868326790579317
490.277477037614 798.3287707476762 0.38595893667894643
490.7827235561623 798.9293954099487 0.3851757717986857
491.08830870440335 799.193681930898 0.3843007975372643
489.1915456231377 795.75259184026 0.38243166864867817
488.90298050752557 795.018136035072 0.38129212126187895
489.0061940355234 794.9428026238135 0.3803292957920803
489.30435385179123 795.1951932662405 0.3794533899514363
489.2121484476147 794.7913383651453 0.3784034224622701
489.71178123750707 795.3820855503882 0.3776159698344941
489.6191409353478 794.9775792009051 0.3765661313823898
489.7259699032158 794.9082270139065 0.3756045259224834
490.6250734018059 796.1690754588135 0.3749893101792168
488.5365959927185 792.4144613247591 0.37307024400894306
488.6406194507033 792.3409872110719 0.3721097974841996
488.7436142437911 792.2657854273677 0.3711488988728888
489.0461600101371 792.5252823082465 0.3702738662130969
488.3556920798575 791.119484978739 0.3689725450325909
488.2641416103677 790.7183949941145 0.3679296151967719
488.3662378429868 790.6420188144898 0.36696967882943454
488.4694615921066 790.5675314957614 0.36601021839942405
488.57297457163344 790.493527356303 0.3650508745793104
488.87450961525707 790.7511512794049 0.36417468653951346
488.9777883722822 790.676667678996 0.36321489081234404
489.081614378497 790.6030987612919 0.3622553176075485
489.1854411404954 790.5295293080325 0.3612957374177199
489.28872474427794 790.4550493450472 0.36033592556560734
489.3931013911145 790.3823962532874 0.3593765579166188
489.49860670335704 790.3116282083688 0.3584176434242181
490.9959292078081 792.5676107578151 0.3580264569532119
491.09974107931845 792.4934158199645 0.35706443583143255
490.00857762355406 790.4225467825897 0.35561906951249966
491.50822962955533 792.680559132973 0.3552212743457517
491.61262815526214 792.6072541216806 0.35425912439313834
489.52603779088923 788.8758295385247 0.3524220514717058
489.43315127667023 788.4741404683083 0.35138520279161867
489.5345075784046 788.3967631535244 0.3504259206969209
